0.7774,20.7774,39.9980,43.2610,51.5453,52.2240,55.1414,46.8571,50.8571,55.1211,59.7094,59.7094,79.7094,86.2334,86.2334,106.2334,106.4098,98.1255,97.2690,97.2690,117.2690,116.3256,110.4677,114.9392,113.4462,121.7305,120.6825,114.8247,119.1890,119.1890,127.4733,137.3540,145.6383,157.6096,149.3253,157.6096,154.3868,148.5289,148.5289,156.8132,146.7697,138.4854,138.4854,137.7225,117.7225,117.7225,120.6607,112.3764,118.1499,124.8166,132.3759,140.6601,152.2071,142.3438,134.0596,142.3438,142.1545,150.4388,139.4542,131.1699,137.4945,144.5656,152.8498,161.7941,173.3411,176.4381,166.4381,158.1539,160.6646,152.3804,160.6646,148.5948,140.3105,148.5948,149.5795,141.2952,145.6576,139.7998,139.3128,147.5971,146.2651,154.5493,155.3197,163.6040,177.7461,171.3534,179.6377,188.0907,193.3757,201.6600,197.4933,197.4933,205.7775,193.9168,185.6326,185.6326,191.4904,188.2569,188.2569,196.5411
0.1667,11.7137,31.7137,23.2610,34.8375,32.2240,41.5119,26.8571,30.8571,35.1211,39.7094,59.7094,73.5843,66.2334,86.2334,98.8505,90.5662,78.1255,77.2690,91.4111,111.4111,96.3256,90.4677,94.9392,93.4462,110.1835,100.6825,94.8247,99.1890,99.1890,119.1890,117.3540,137.3540,147.6096,129.3253,147.6096,134.3868,128.5289,128.5289,148.5289,138.4854,118.4854,118.4854,130.9962,117.7225,97.7225,105.0734,92.3764,98.1499,104.8166,112.3759,123.9229,143.9229,132.3438,114.0596,132.3438,122.1545,131.6096,123.3253,111.1699,117.4945,124.5656,133.5098,145.0568,165.0568,168.1539,148.1539,138.1539,148.1539,132.3804,150.6646,138.5948,120.3105,138.5948,138.0325,121.2952,125.6576,119.7998,119.3128,129.9351,126.2651,142.6706,135.3197,149.4618,165.8804,151.3534,159.8064,177.0458,173.3757,191.6354,177.4933,177.4933,197.4933,185.6326,165.6326,165.6326,171.4904,168.2569,168.2569,188.2569
0.2375,20.2375,27.4976,11.7140,14.8375,18.0819,21.5119,35.6540,50.8571,55.1211,59.7094,47.5541,53.5843,67.7264,87.7264,87.3035,70.5662,66.5785,86.5785,105.5532,108.1063,95.6656,76.3256,80.7971,81.8992,91.8911,95.1355,80.6825,85.0469,105.0469,103.2119,117.3540,137.3540,139.3253,119.3253,129.3253,134.3868,114.3868,134.3868,143.5572,137.6994,124.3433,104.3433,114.3433,102.7119,103.5698,85.0734,105.0734,118.1499,117.6100,125.8943,140.6601,137.2242,124.0596,104.0596,124.0596,110.6075,116.4653,103.3253,123.3253,130.6515,136.6817,143.3484,151.6327,161.6327,176.4381,166.4381,148.1539,128.1539,122.3804,135.7137,130.3105,110.3105,130.3105,129.0882,109.7482,122.7557,105.6576,107.7658,109.9351,129.9351,122.6706,142.6706,137.5961,151.7382,139.8064,159.8064,157.0458,176.3858,173.9230,163.3511,183.3511,187.6150,179.3307,171.4904,151.4904,171.4904,154.1147,174.1147,184.6078
0.2578,20.2578,7.4976,27.4976,34.8375,38.0819,41.5119,49.7961,63.9383,61.2412,69.5255,67.5541,73.5843,81.8686,81.1314,72.8471,59.0192,79.0192,86.5785,106.5785,99.2670,79.8220,67.3813,69.2501,87.4190,71.8911,75.1355,95.1355,105.0469,93.2119,113.2119,131.4961,144.9767,136.6924,129.3253,109.3253,120.7973,108.3566,128.3566,123.5572,117.6994,126.1524,114.3433,94.3433,88.5698,83.5698,80.9031,100.9031,103.4679,97.6100,117.6100,130.9258,128.9399,108.9399,97.3929,109.5482,112.1520,96.4653,100.9375,105.6515,110.6515,116.6817,123.3484,133.3484,153.3484,162.8571,154.4041,146.1198,148.1539,135.7137,115.7137,123.6439,103.6439,118.7932,118.1313,100.8039,102.7557,122.7557,127.7658,129.9351,113.1377,115.5995,135.5995,123.4540,143.4540,132.2471,152.2471,148.1015,166.3637,153.9230,168.0652,188.0652,176.0680,159.3307,165.4602,145.4602,157.6156,147.0437,164.6078,164.6078
0.6835,3.4570,23.4570,35.7819,45.0445,43.4446,51.7289,54.8921,49.6942,41.2412,55.3833,75.3833,71.0141,75.5844,67.3001,52.8471,72.8471,87.3035,93.4884,96.3802,85.1248,70.9827,59.8220,79.8220,67.4190,87.4190,95.1355,85.1355,105.1355,113.2119,121.4961,137.2610,128.9767,116.6924,124.0016,115.7173,100.7973,120.7973,136.6409,123.5572,103.5572,106.1524,120.2945,114.3433,108.5698,96.9031,76.9031,92.7775,83.4679,103.4679,114.5959,110.9258,130.9258,114.5445,106.2603,89.5482,92.1520,112.1520,120.9375,125.6515,130.6515,130.6515,143.3484,151.6327,161.6327,152.8571,134.5728,126.1198,140.7458,132.4615,129.5416,109.5416,118.7932,98.7932,98.1313,112.2735,122.7557,114.3027,134.3027,139.1679,119.1679,135.5995,119.4134,139.4134,127.7180,147.7180,137.4111,141.7754,146.3637,166.3637,182.2073,180.6486,167.1237,147.7837,167.1237,157.6156,137.6156,151.9587,144.6078,164.6078
0.8766,20.8766,31.7413,25.0445,25.0445,23.4446,36.1616,34.8921,29.6942,49.6942,69.5255,65.1563,51.0141,65.1563,47.3001,67.3001,81.1314,87.6306,73.4884,82.2381,68.0960,56.8406,76.8406,63.2026,83.2026,87.4190,107.4190,105.1355,97.7847,111.9268,131.9268,125.7140,108.9767,105.1454,111.0032,95.7173,115.7173,117.1272,137.1272,124.5210,112.0102,92.0102,112.0102,117.5401,116.9031,96.9031,92.7775,72.7775,92.7775,103.0489,94.5959,114.5959,111.3420,103.0577,86.2603,106.2603,112.1520,100.3170,107.8763,116.8206,128.3676,148.3676,158.9358,170.0086,158.7150,138.7150,124.5728,114.5728,125.6286,112.4615,116.7442,121.5603,113.2761,95.5052,103.0645,123.0645,140.5577,125.8497,142.5870,145.8346,125.8346,145.8346,130.9604,147.6976,141.8601,156.0023,157.4111,161.7754,166.3637,174.6480,176.5065,166.5065,152.3643,138.8394,148.8394,155.3923,147.1080,131.9587,146.1008,166.1008
0.3337,20.3337,23.7454,5.0445,25.0445,11.8976,16.1616,20.7499,40.7499,57.9785,63.3267,55.0424,36.8720,56.8720,43.6486,57.7907,77.7907,77.6306,59.3463,71.2195,53.9538,73.9538,85.1248,83.2026,69.2328,80.7798,94.9220,114.9220,117.7847,126.0689,131.5718,111.5718,97.4297,106.7392,91.0032,111.0032,124.0016,137.1272,130.3789,110.3789,96.2367,86.2367,99.5701,97.5401,111.6822,107.4219,90.1513,70.1513,90.1513,83.0489,103.0489,108.3439,100.0596,83.0577,90.1288,104.2709,124.2709,120.3170,116.6469,136.1606,145.1048,156.6518,164.1508,150.0086,164.1508,149.7707,129.7707,115.6286,105.6286,100.9145,96.7442,111.0874,93.2761,107.4182,123.0645,117.2066,137.2066,145.8497,154.1340,154.1189,139.9767,142.1645,150.9604,159.2446,161.8601,160.0132,151.7289,154.3241,162.6083,169.4139,161.1296,148.2222,138.2222,148.8394,128.8394,147.1080,127.1080,147.1080,159.2608,169.2608
0.2693,20.2693,3.7454,23.7454,6.3506,26.3506,36.1616,34.8921,37.0799,57.0799,53.2280,35.0424,55.0424,38.7250,58.7250,62.1724,70.4566,66.7643,49.3463,51.2195,71.2195,65.5008,77.0478,97.0478,80.7798,76.5358,96.5358,111.7718,120.0561,131.6031,132.4284,112.4284,98.2862,86.7392,106.7392,119.2875,118.6619,126.9462,122.5772,114.2929,114.5210,99.5701,79.5701,83.3979,101.6822,99.1376,79.1376,67.5906,73.6208,93.6208,104.9766,100.0596,80.0596,100.0596,110.1288,104.2709,118.4130,138.4130,136.6469,144.9312,164.3069,156.0226,155.8665,135.8665,155.8665,154.6371,143.9128,133.9128,125.6286,120.9145,111.0874,91.0874,111.0874,121.5603,135.7025,137.2066,145.4909,147.8048,139.5206,147.8048,159.9767,162.1645,170.4488,154.4434,146.1591,148.4662,131.7289,134.3241,154.3241,161.1296,141.1296,146.9874,128.2222,142.8092,122.8092,139.8229,123.9054,130.9765,140.9765,160.9765
0.2740,20.2740,2.8297,22.8297,7.3030,21.4451,41.4451,54.8921,57.0799,53.2280,33.2280,51.4283,59.7126,58.7250,40.7401,42.1724,62.1724,46.7643,66.7643,62.7665,79.5037,85.5008,93.7851,105.3321,94.9220,96.5358,84.7008,91.7718,103.3188,123.3188,137.8259,118.2323,98.2323,84.0902,100.4687,104.5198,98.6619,118.6619,114.2929,94.2929,100.1508,93.8262,88.0527,73.3979,93.3979,91.7277,83.4435,65.2964,85.2964,89.1905,84.9766,97.9967,77.9967,89.5437,103.6859,123.6859,132.5552,134.1509,142.4352,153.9822,156.0226,136.0226,141.8805,128.3072,138.3072,134.6371,154.6371,148.2267,134.0846,124.0846,109.6588,89.6588,109.6588,122.6278,130.9121,140.9121,143.5052,137.8048,119.5206,137.8048,151.7342,143.4499,151.7342,146.1591,126.1591,132.0170,120.1819,131.7289,151.7289,161.1296,141.1296,126.9874,120.6629,133.9962,117.2622,119.8229,139.8229,150.9765,159.2608,169.2608
0.8628,1.5373,21.5373,28.2586,8.2586,28.2586,42.1285,50.4128,61.9598,61.5123,51.4283,31.4283,49.6430,57.9273,60.7401,62.1724,44.2243,64.2243,75.0486,82.7665,91.0507,92.4933,98.8178,107.1021,114.9220,112.9850,98.8429,111.7718,120.0561,126.0665,117.8259,117.8259,112.3744,100.4687,80.4687,84.5198,104.5198,116.0989,114.2929,94.2929,80.1508,73.8262,68.0527,83.6883,89.8982,81.6139,63.4435,83.4435,67.5683,69.1905,70.8345,90.8345,75.9867,90.1288,110.1288,127.3179,122.6039,114.1509,125.6979,145.6979,152.6055,141.8805,121.8805,138.3072,118.3072,138.3072,140.4435,132.1593,119.9425,105.8003,95.8003,88.2410,108.2410,102.6278,112.6278,132.6278,123.5052,123.5052,109.5206,129.5206,141.7342,123.4499,141.7342,144.3144,132.0170,112.0170,132.0170,147.3761,160.0132,169.3083,155.2717,146.9874,133.9962,113.9962,133.9962,139.8229,129.2510,149.2510,160.7980,180.7980
0.2490,20.2490,29.8216,29.2175,9.2175,29.2175,22.1285,33.6755,53.6755,72.7715,56.1630,47.8787,29.6430,43.7852,63.7852,66.7243,46.7243,66.7243,70.3758,90.3758,84.3283,72.4933,78.8178,87.7621,99.3091,119.3091,118.8429,121.3107,113.0265,106.0665,117.8259,97.8259,105.1768,108.7530,96.9605,76.9605,87.8147,101.9568,111.9568,108.4350,100.1508,90.3550,70.3550,63.6883,79.8032,61.6139,81.6139,83.4435,81.7104,83.3326,90.8345,73.1997,93.1997,104.2709,108.8115,107.3179,102.6039,122.6039,137.4754,149.0224,144.3212,124.3212,114.3212,126.4766,113.1432,133.1432,132.1593,112.1593,118.0171,124.0846,106.8543,86.8543,92.6278,112.6278,130.9121,140.9121,121.7895,103.5052,102.4495,122.4495,133.4499,113.4499,133.4499,130.1722,116.0301,107.5448,119.0918,139.0918,152.9784,149.3083,149.6802,141.3959,131.9655,111.9655,126.1077,146.1077,149.2510,140.7980,154.9402,174.9402
0.8486,20.8486,35.8945,37.5018,29.2175,10.5815,30.5815,44.4872,44.4872,54.4122,46.1279,27.8787,47.8787,57.9273,64.1082,72.3925,66.7243,50.3758,70.3758,77.0254,64.3283,84.3283,98.8178,107.1021,116.0464,127.5934,127.1686,107.1686,93.0265,91.9244,108.6616,105.1768,85.1768,105.1768,98.8522,90.5679,73.6725,83.6725,103.6725,113.4490,93.4490,81.9020,90.3550,79.8032,59.8032,79.8032,89.8982,103.4435,101.7104,103.3326,101.4840,93.1997,77.9138,97.9138,88.8115,93.1758,100.2469,109.1912,120.7382,140.7382,152.6055,142.6055,126.4766,106.4766,126.4766,141.4275,134.2706,118.0171,98.0171,107.3267,105.5120,85.5120,105.5120,112.6278,132.6278,125.5698,113.5052,93.5052,107.6474,127.6474,126.7833,106.7833,126.7833,121.8880,101.8880,121.8880,135.8291,147.1205,132.9784,135.1662,141.3959,121.3959,127.2538,109.9755,129.9755,142.6246,162.6246,160.7980,159.9038,168.1880
0.0510,7.6103,21.7524,41.7524,31.5551,11.5551,31.5551,24.4872,44.4872,46.1279,26.1279,44.3905,47.1377,49.9661,44.1082,64.1082,78.6601,70.3758,54.2248,57.0254,77.0254,78.3553,92.4974,112.4974,131.3437,139.6280,120.4474,110.4474,100.3774,80.3774,100.3774,98.5101,78.5101,89.9821,87.5698,70.5679,90.5679,101.9568,111.9568,121.7333,110.1863,101.9020,97.3365,78.6504,58.6504,72.7925,92.7925,105.6135,97.3293,105.6135,117.1605,106.1980,97.9138,82.9138,102.9138,113.1758,120.2469,128.5312,125.7204,125.7204,134.0047,137.2381,117.2381,103.0959,118.6787,126.9630,120.1285,105.9864,107.3267,87.3267,102.3096,84.1786,98.3208,118.3208,122.9747,111.4277,97.2855,88.9169,103.0590,123.0590,121.0098,101.0098,121.0098,113.5149,98.2959,112.4380,132.4380,138.8363,118.8363,138.8363,141.3959,121.3959,107.2538,127.2538,122.6246,142.6246,154.0459,145.7616,139.9038,159.9038
0.2551,20.2551,23.9402,43.9402,39.8394,31.5551,12.9402,32.9402,52.7715,51.0936,42.8093,24.3905,27.1377,29.9661,49.9661,54.3305,74.3305,82.5091,74.2248,77.0254,62.0254,82.0254,95.9665,107.5135,111.3437,128.0810,112.1631,92.1631,82.1631,74.6038,88.2793,96.5636,89.9821,69.9821,67.5698,87.5698,90.5679,110.5679,106.9013,115.1856,111.1504,102.8661,89.0522,69.0522,57.5052,77.5052,95.6135,87.3293,77.3293,88.8763,108.8763,121.1867,111.1980,102.9138,95.5629,109.7050,129.7050,119.8625,105.7204,105.7204,125.7204,139.4259,119.4259,118.6787,98.6787,114.5084,111.8442,91.8442,99.1951,81.0021,82.3096,102.3096,112.4629,123.6772,114.6904,94.6904,83.1434,103.1434,108.9169,128.9169,115.8458,95.8458,108.9858,93.5149,113.5149,126.5801,131.9258,123.6416,112.1696,132.1696,139.5469,119.5469,105.4048,119.5469,139.5469,150.9088,145.7616,125.7616,145.7616,158.9262
0.8916,15.0338,35.0338,52.2245,43.6206,33.9291,13.9291,33.9291,49.5389,41.2547,22.8093,42.8093,47.1377,49.9661,34.3305,54.3305,63.5166,71.8009,83.3479,90.3096,82.0254,67.6822,79.2292,99.2292,99.7967,119.1367,120.4474,110.4474,100.7285,88.2793,68.2793,88.2793,81.9401,64.6369,84.6369,95.8541,100.1373,97.9495,86.9013,103.6386,99.6034,82.8661,90.5114,70.5114,56.3693,74.7706,79.4846,67.3293,87.3293,105.6135,111.7951,101.1867,108.1467,116.4310,115.5629,123.8472,117.6718,109.3875,91.5783,111.1739,119.4581,129.4581,139.4259,126.9630,114.5084,94.5084,110.4678,99.1951,79.1951,97.4204,102.3096,110.5938,103.6772,103.6772,114.6694,99.6079,79.6079,93.7500,113.7500,125.6251,113.6186,105.3344,88.9858,108.9858,121.7992,125.0659,116.7816,103.6416,115.1886,135.1886,137.7362,117.7362,103.5941,123.5941,141.7581,139.5346,131.2503,119.0950,130.6420,150.6420
0.5108,12.0578,26.1999,46.1999,35.3363,15.3363,33.9291,42.2134,39.7116,21.2547,41.2547,33.4998,53.4998,62.6147,54.3305,39.0445,43.5166,55.0636,75.0636,86.3122,95.9665,87.6822,74.3489,94.3489,90.8524,104.9946,124.9946,106.5864,86.5864,72.4443,64.2793,79.2793,61.9401,81.9401,92.9211,100.1373,80.1373,77.9495,75.3543,95.3543,91.3191,71.3191,80.6287,81.5049,73.2206,54.7706,59.4846,79.4846,95.6135,105.9372,91.7951,87.0446,88.1467,102.2888,122.2888,111.7741,103.4899,89.3875,84.5072,91.1739,101.1739,121.1739,138.6755,128.6755,120.3912,110.4678,90.4678,107.4794,97.4204,77.4204,95.8610,94.7667,83.6772,92.5973,100.5272,86.3851,76.2745,90.4167,110.4167,105.6251,105.3344,85.3344,105.3344,117.2701,119.2924,111.0081,96.7816,108.3286,128.3286,143.4729,135.9545,115.9545,101.8123,113.4738,127.6159,125.2201,111.2503,120.1946,134.3367,154.3367
0.5196,20.5196,36.8829,46.8829,43.6206,35.3363,16.7523,36.7523,19.7116,39.7116,49.5389,53.4998,47.6419,67.6419,64.2085,44.2085,63.5166,51.3613,58.0279,72.1701,92.1701,102.6331,94.3489,81.9082,101.9082,119.1367,107.9035,99.6192,100.7285,92.4443,79.2793,59.2793,76.9776,85.2618,98.6161,90.3318,83.8073,63.8073,83.8073,98.0763,99.6034,80.6287,60.6287,71.6844,53.2206,67.3627,79.4846,87.7689,101.7553,95.9372,77.6529,75.4976,87.0446,107.0446,111.7741,100.2271,83.4899,77.8405,97.8405,111.1739,119.4581,129.4581,130.3912,110.3912,100.3912,93.7245,87.6943,100.7537,80.7537,95.8610,75.8610,74.7667,73.6772,72.5973,91.0745,72.2430,73.0720,93.0720,95.1530,91.4829,102.8537,82.8537,99.3982,107.6825,105.7559,91.0081,111.0081,125.0659,136.6129,136.4898,128.2055,130.0966,119.3317,99.3317,119.3317,105.2201,125.2201,139.5346,140.1946,160.1946
0.4337,8.5986,18.5986,32.7408,52.7408,45.0366,36.7523,18.1754,21.1906,41.1906,51.3813,59.6656,67.6419,75.9262,69.7555,49.7555,69.7555,71.3613,71.3613,70.6771,84.8192,104.8192,110.1924,101.9082,95.9889,104.2732,96.3565,79.6192,96.3565,95.6092,75.6092,76.9776,56.9776,74.7130,82.9973,70.3318,78.4621,58.4621,69.7920,89.7920,100.6199,80.6199,71.6844,51.6844,71.6844,81.5049,95.6470,98.9294,81.7553,81.7553,67.6529,87.6529,103.7818,115.3289,103.4899,83.4899,71.9429,91.9429,101.8029,101.8029,121.8029,140.6024,138.6755,128.6755,120.3912,113.7245,104.1588,84.1588,100.7537,104.1453,95.8610,94.7667,93.6772,90.1495,71.0745,91.0745,93.0720,74.2891,75.1530,95.1530,97.2548,98.1395,79.3982,99.3982,85.7559,105.7559,119.2924,119.1994,127.4837,128.2055,108.2055,114.0634,115.5143,97.6167,100.6318,120.6318,113.0647,133.0647,150.2933,161.8403
0.5386,20.5386,33.8211,42.1054,52.1054,62.4899,44.2057,24.2057,41.1906,25.6078,31.3813,51.3813,69.6656,81.2126,69.7555,69.7555,60.4459,80.4459,91.3613,90.6771,98.9613,101.1792,92.7262,84.4419,75.9889,92.7262,88.0722,68.0722,87.9884,96.2726,95.6092,85.2618,74.7130,54.7130,74.7130,58.7848,67.2900,53.4621,73.4621,85.0307,93.3149,80.6199,60.6199,50.6199,70.6199,81.1828,87.0407,84.7873,70.6451,61.7553,81.7553,83.9829,103.9829,102.4379,92.3783,84.0940,68.4073,74.7319,81.8029,95.9451,115.9451,120.6024,134.7445,131.1363,127.2627,118.9785,112.4430,104.1588,112.4430,115.8615,107.5773,108.5753,90.1495,70.1495,90.1495,99.3588,102.5734,88.4313,95.1530,76.3828,77.2548,78.1395,98.1395,80.7559,100.7559,110.4561,105.0573,99.1994,119.1994,120.3273,112.0431,94.0634,95.5143,115.5143,120.6318,116.9617,133.0647,122.0090,133.5560,153.5560
0.0834,6.7500,13.8211,23.8211,43.8211,54.2057,34.2057,44.2057,49.3875,29.3875,49.3875,41.3813,52.9283,72.9283,89.7555,80.4459,74.5881,88.7302,97.4009,98.9479,104.8058,91.9621,72.8949,64.4419,64.4419,84.4419,80.5129,60.5129,67.9884,87.9884,103.2331,84.6838,64.6838,53.1368,68.7848,48.7848,47.2900,65.2999,70.8885,65.0307,85.0307,83.7065,63.7065,49.5644,68.0819,61.1828,67.0407,76.5030,56.5030,76.5030,90.0395,103.9829,98.5889,88.2958,74.1537,64.0940,84.0940,94.7319,101.8029,110.0872,113.8111,106.4603,126.4603,111.1363,111.1363,98.9785,115.7157,117.7651,115.3703,104.3145,87.5773,88.5753,88.5753,69.4969,83.6390,103.6390,115.8008,108.4313,104.6670,96.3828,82.8018,98.1395,98.1395,100.7559,82.1719,102.1719,85.0573,105.0573,114.8139,112.0431,92.0431,112.0431,115.5143,108.1634,122.3056,136.9617,145.2460,142.0090,136.1511,156.1511
0.4524,10.4524,30.4524,42.1054,52.1054,62.4899,48.3478,54.2057,57.6717,40.9345,35.5596,55.5596,57.7113,71.8534,91.8534,100.4459,94.5881,91.5430,77.4009,78.9479,84.8058,83.6778,63.6778,52.8949,72.8949,87.1792,73.8462,53.8462,73.8462,83.2331,83.2331,92.9681,81.4210,65.0836,50.9415,68.7848,65.2999,45.2999,50.8885,70.8885,81.6135,89.5644,69.5644,68.0819,48.0819,47.0407,65.5782,68.5933,53.1224,67.2645,87.2645,94.9374,84.4468,70.3047,60.0115,80.0115,92.3783,106.8403,115.1245,113.8111,93.8111,104.3831,112.6673,111.1363,91.1363,87.4315,106.7715,97.7651,97.7651,87.0860,76.0303,87.7020,68.5753,70.5460,90.5460,87.5165,101.6587,121.6587,112.8018,92.8018,102.8018,99.1317,118.1395,110.4561,96.3140,83.5986,103.5986,86.5297,106.5297,109.0916,90.6324,110.6324,121.3600,128.1634,136.4477,150.5898,149.3217,157.6059,156.1511,164.4354
0.4402,20.4402,30.4524,50.4524,48.1874,56.4717,68.3478,74.2057,69.2187,60.9345,44.5039,43.1189,63.1189,79.9312,89.9312,98.2097,88.2097,79.9254,63.2588,64.8058,84.8058,82.8148,67.3479,47.3479,58.8949,78.8949,68.8462,48.8462,68.8462,63.2331,83.2331,100.0273,93.3679,79.2258,70.9415,79.2258,73.5842,63.3292,43.3292,53.3292,73.3292,86.9832,78.6989,76.3661,68.0819,64.1980,45.5782,48.5933,68.5933,81.4066,90.7154,80.7953,66.6532,56.1625,76.1625,88.2958,92.6981,86.8403,106.8403,122.0954,104.3831,84.3831,96.8238,105.1080,98.4872,78.4872,98.4872,97.7651,77.7651,86.2181,67.0860,67.7020,87.7020,90.5460,73.3744,93.3744,108.5691,116.8534,121.0861,106.9439,109.1317,119.1317,127.4160,124.5983,108.7626,88.7626,108.7626,106.5297,88.0101,89.0916,109.0916,93.0758,107.2179,127.2179,135.3313,143.6156,129.3217,146.0589,155.6631,163.9474
0.4237,14.5659,34.5659,34.0453,28.1874,48.1874,56.0692,64.3535,74.3535,72.7881,56.0509,63.1189,51.6469,61.6469,81.6469,89.9254,69.9254,59.9254,53.2588,66.9342,75.2185,74.5305,54.5305,42.9835,62.9835,73.8090,64.2579,44.2579,50.5840,70.5840,80.0273,80.0273,95.1777,86.8934,90.1540,80.0752,60.0752,60.0752,41.9778,61.9778,81.6135,78.0579,58.6989,62.3690,62.8228,44.1980,64.1980,68.5933,76.8775,84.8575,70.7154,72.5110,52.5110,72.5110,84.4468,92.6981,72.6981,92.2099,100.4942,110.4942,112.6673,96.8238,76.8238,90.3349,86.0709,73.1420,93.1420,106.0493,86.2181,66.2181,86.2181,87.7020,95.9863,76.4979,93.3744,81.9024,88.5691,98.5691,112.7112,126.9439,129.1317,137.4160,129.7377,109.7377,98.1907,100.3096,114.1823,94.1823,108.0101,103.2338,114.8299,94.8299,114.8299,125.6440,115.3313,126.2277,117.7747,137.7747,135.6631,155.6631
0.9143,20.9143,28.2718,14.0453,34.0453,46.0692,36.0692,46.0692,66.0692,84.3351,76.0509,79.9312,63.1939,79.9312,89.9312,98.2097,88.2097,79.9254,66.9342,46.9342,61.1607,69.4450,59.0612,39.0612,53.8090,53.8090,54.7296,39.8936,59.8936,67.3782,60.0273,80.0273,83.6307,66.8934,76.0118,61.8697,60.0752,40.0752,59.1893,67.4736,78.0579,58.0579,61.7279,42.3690,42.8228,62.8228,64.0642,64.5794,72.8636,74.8575,56.5732,67.0983,50.0492,70.0492,86.3521,78.0678,65.1388,72.2099,82.2099,102.2099,115.2475,105.1080,90.3349,70.3349,66.0709,81.5988,89.8830,93.0300,84.7458,65.6072,77.1542,97.1542,98.7201,78.7201,98.7201,101.9024,108.5691,116.8534,126.8534,140.9955,141.7925,146.5066,138.0220,126.4749,108.1907,114.4517,118.7706,98.7706,118.7706,123.2338,123.1141,114.8299,97.3597,117.3597,103.7843,106.2277,126.2277,121.5210,141.5210,158.7139
0.9064,4.5579,8.2718,28.2718,20.9052,26.0692,46.0692,64.3535,74.3535,73.1359,73.1359,81.4202,83.1939,91.4782,100.7246,89.1776,80.8933,73.8223,67.7920,61.1607,41.1607,61.1607,67.3455,53.8090,33.8090,50.7863,34.7296,51.6047,57.3782,47.3782,67.3782,80.5593,75.3464,55.3464,63.7994,47.7275,58.1486,38.7448,39.1893,59.1893,68.1031,61.0881,41.7279,61.7279,62.8228,43.5495,44.0642,44.5794,64.5794,65.8322,46.5732,47.0983,47.6239,67.6239,72.0376,58.0678,69.6148,89.6148,100.4942,110.4942,106.9632,86.9632,90.6333,89.0544,80.7701,61.5988,81.5988,84.7458,64.7458,84.7458,85.6072,105.4385,107.0044,92.8622,81.9861,101.9861,113.6510,127.7931,137.2145,135.9347,121.7925,126.5066,140.6487,136.4749,122.3328,134.4517,123.7706,103.7706,123.7706,135.2817,122.0737,102.0737,117.3597,100.4276,120.4276,126.2277,109.9740,129.9740,130.4296,150.4296
0.3064,20.3064,28.2718,36.5561,40.9052,46.0692,42.3991,62.3991,67.2781,53.1359,53.1359,73.1359,77.9753,86.2595,92.4403,72.4403,60.8933,53.8223,47.7920,42.4468,37.4468,53.2765,58.0914,49.8071,30.3790,30.7863,31.1940,31.6047,37.3782,51.5203,71.5203,60.5593,74.7015,63.7994,43.7994,37.7275,38.1486,58.1486,59.1893,39.8188,59.8188,41.0881,61.0881,70.0122,71.8337,55.0965,64.0642,64.5794,45.3092,45.8322,65.8322,67.0983,67.6239,48.3861,52.0376,62.0376,82.0376,97.8991,106.7475,98.4633,106.7475,90.6333,70.6333,79.9428,60.7701,80.7701,62.4435,82.4435,64.1380,84.1380,97.9693,113.8915,121.1465,110.2704,96.1282,85.3667,99.5088,108.9302,117.8405,121.6202,107.6504,112.3644,132.3644,147.6005,142.3328,140.1005,120.1005,110.0951,130.0951,126.9974,106.9974,122.0737,126.2011,106.2011,126.2011,138.2583,129.9740,114.0997,125.6467,145.6467
0.0274,20.0274,24.0651,38.2072,58.2072,55.9559,62.3991,58.3338,50.0495,38.9938,53.1359,73.1359,57.9753,74.7125,84.7125,89.1776,80.8933,73.8223,67.7920,62.4468,53.2765,33.2765,49.2359,29.8071,49.8071,42.3333,51.1940,51.6047,32.1873,52.1873,53.7681,46.4172,66.4172,57.1327,37.1327,56.5393,58.1486,66.4329,68.1031,59.8188,40.4491,60.4491,61.0881,81.0881,83.3807,75.0965,81.8760,68.5117,48.5117,65.8322,74.1165,69.1573,49.1573,68.3861,72.0376,80.3218,82.0376,102.0376,96.7475,78.4633,96.7475,98.9176,79.9428,59.9428,79.1191,87.4034,82.4435,63.2894,83.2894,69.6850,89.6850,103.9995,113.9995,124.4125,113.6510,99.5088,88.9302,108.9302,97.8405,101.6202,121.6202,132.3644,120.5294,127.6005,147.6005,148.3848,137.1662,117.1662,137.1662,135.2817,126.9974,112.3426,132.3426,120.3432,116.8915,136.8915,118.7496,134.0997,134.0997,153.9310
0.1758,7.7351,21.8773,41.8773,39.6260,35.9559,55.9559,50.0495,30.0495,48.5533,52.6358,57.0002,46.4283,56.4283,76.4283,89.3217,79.3217,71.0374,79.3217,68.5023,56.9553,48.6710,29.2359,49.2359,49.8071,62.3333,70.6176,52.5994,32.5994,52.5994,33.7681,53.7681,54.7684,63.0527,55.9468,36.5393,48.0863,68.0863,80.4491,60.4491,60.4491,44.4491,64.4491,78.1766,89.7236,87.4230,73.5917,53.5917,68.5117,61.1608,81.1608,77.4416,69.1573,49.9297,69.9297,78.9886,93.1308,88.3103,88.4633,68.4633,88.4633,91.0530,86.5852,78.3009,59.1191,79.1191,91.5737,77.4316,83.2894,89.6850,75.7152,85.7152,99.8574,119.8574,127.7931,117.2145,108.9302,92.6765,112.6765,121.6202,121.6202,141.6202,132.0764,147.6005,141.7426,161.7426,145.4505,128.7132,145.4505,141.2869,121.2869,117.3426,137.3426,140.3432,126.8915,145.1758,138.7496,123.5305,143.5305,162.3840
0.4684,20.4684,36.0194,38.9660,19.6260,38.9660,37.7138,40.3400,24.7043,28.5533,32.6358,37.0002,51.1423,71.1423,84.7125,81.0374,61.0374,51.0374,61.0374,60.2180,40.2180,28.6710,48.6710,45.5658,65.5658,78.0914,66.7416,46.7416,52.5994,33.1833,53.1833,34.3539,34.7684,54.7684,35.9468,55.9468,56.5393,76.3706,86.1289,70.7736,50.7736,64.4491,49.8924,61.4394,81.4394,79.1387,59.1387,73.5917,81.8760,81.1608,81.1608,82.5788,62.5788,69.9297,50.7044,64.8465,82.4524,68.3103,81.7966,61.7966,76.3383,71.0530,77.4844,58.3009,78.3009,67.2841,87.2841,97.4316,103.2894,95.7152,95.7152,83.5599,103.5599,121.8442,131.8442,124.2235,104.2235,112.6765,99.3432,106.0099,126.0099,145.8411,152.0764,160.3607,161.7426,170.0269,156.9975,148.7132,151.9773,131.9773,141.2869,137.3426,125.1873,145.1873,146.8915,146.8915,147.0121,127.0121,141.1542,161.1542
0.2052,20.2052,25.3428,27.4995,10.6817,30.6817,17.7138,20.3400,40.3400,48.5533,52.6358,57.0002,47.6906,61.8327,81.8327,89.3217,75.1795,55.1795,41.0374,52.8724,47.7085,28.2721,42.4143,62.4143,73.8501,81.8243,75.0258,66.7416,61.4675,43.1833,61.4675,48.4961,54.7684,35.3553,55.3553,50.0890,70.0890,84.8236,77.8447,57.8447,64.9157,78.1766,69.8924,56.2169,76.2169,87.4230,79.1387,65.3109,76.8579,96.8579,101.1608,82.5788,82.5788,71.2530,51.2530,71.2530,73.3764,54.1682,74.1682,55.7664,56.3383,56.9109,57.4844,77.4844,86.5852,87.2841,76.7122,88.2592,108.2592,115.7152,111.8442,97.7020,93.5599,103.5599,123.5599,132.5078,115.7705,126.4143,106.4143,126.0099,117.5569,131.6990,151.6990,149.2350,149.2350,157.5192,163.8248,155.5405,160.2616,143.5243,160.2616,153.4715,136.7343,135.8777,155.8777,166.8915,150.7260,130.7260,150.7260,165.6769
0.8188,20.8188,5.3428,7.4995,27.4995,14.0623,34.0623,40.3400,28.5049,37.4492,48.9962,68.9962,59.2376,75.9749,88.4303,78.4303,70.1461,63.4794,52.8724,32.8724,27.7085,47.7085,56.5564,68.7837,75.9664,61.8243,67.6821,69.8699,71.4675,63.1833,71.4675,68.4961,58.7359,38.7359,58.7359,70.0890,78.3732,87.2728,67.2728,77.8447,74.1746,93.2000,84.5012,66.2169,64.0616,84.0616,90.1616,70.1616,90.1616,105.1421,110.8631,98.2911,78.2911,71.8022,51.8022,71.8022,53.3764,73.3764,54.9615,74.9615,76.3383,76.9109,64.5555,70.1335,90.1335,104.9964,88.2592,104.9964,116.5434,109.4590,117.7433,117.7020,113.5599,121.8442,131.8442,144.0548,135.7705,134.6985,116.4143,134.6985,137.5569,145.8411,139.2350,129.2350,129.2350,149.2350,152.2778,135.5405,152.2778,163.5243,171.8086,165.0185,156.7343,145.8777,164.1620,161.4164,141.4164,150.7260,137.3926,157.3926
0.2312,2.3277,22.3277,19.0465,35.7838,28.2045,25.6094,45.6094,38.5049,48.5049,65.7335,77.2805,79.2376,87.5219,80.1461,60.1461,50.1461,43.4794,37.4492,31.6757,27.3113,46.7521,40.4994,54.6415,59.5476,47.6821,47.6821,49.8699,69.8699,75.9561,84.2404,72.8780,52.8780,58.7359,44.1792,64.1792,79.7664,94.8321,74.8321,94.8321,94.1746,102.4589,94.5012,80.3591,70.0918,90.0918,96.1918,76.1918,86.4915,106.4915,105.8504,85.8504,78.2911,58.2911,71.8022,52.5858,72.5858,81.6606,74.9615,59.8852,79.8852,92.8397,84.5555,77.2046,86.4634,106.4634,108.2592,116.5434,106.1963,89.4590,106.1963,118.6370,116.3567,124.6410,126.2128,126.2128,134.4971,144.6985,136.4143,144.6985,136.7591,128.4749,119.2350,115.0928,135.0928,150.9390,143.9935,123.9935,142.4167,150.7010,164.8431,169.8348,174.1620,165.8777,174.1620,169.7007,151.4164,162.5566,142.5566,162.5566
0.9846,20.9846,30.6120,39.0465,47.3308,48.2045,37.1564,53.8936,52.6471,66.7892,76.7892,76.4604,76.4604,96.4604,88.4303,78.4303,70.1461,62.3661,42.3661,51.6757,46.7521,26.7521,26.3573,45.7993,39.5476,45.0120,33.5400,53.5400,61.8140,55.9561,75.9561,81.1623,72.8780,70.5038,50.5038,51.4822,71.4822,88.2945,94.8321,91.1620,111.1620,112.0685,108.6433,96.7585,76.7585,96.7585,102.8585,82.8585,102.8585,114.7758,99.9925,79.9925,65.8504,78.2911,76.9501,56.9501,71.0923,91.0923,88.1695,74.0273,65.2304,79.3725,99.3725,88.7516,105.4889,114.7477,113.8064,105.5221,97.9120,77.9120,90.3527,102.2146,96.3567,116.3567,106.2128,106.2128,126.2128,130.0802,138.3645,136.7591,125.2121,108.4749,105.0928,125.0928,130.9390,130.9390,136.4342,116.4342,122.4167,136.5588,155.6927,149.8348,163.9769,167.7312,176.0154,179.7007,165.5586,168.3301,148.3301,168.3301
0.0330,14.1751,34.1751,41.4463,41.4463,61.4463,57.1564,65.4406,72.6471,72.0955,63.8112,56.4604,76.4604,82.5765,84.4004,78.5426,78.6960,58.6960,56.5083,60.8942,40.8942,46.7521,45.7993,25.7993,25.4055,25.0120,44.4568,51.1235,41.8140,61.8140,66.3616,74.6458,84.6458,77.5748,57.5748,71.4822,60.0102,74.1523,94.1523,111.1620,106.2106,92.0685,106.2106,105.0427,86.7585,105.0427,111.1427,92.8585,111.1427,108.9444,88.9444,77.3974,79.9925,94.1346,82.2954,62.2954,73.2801,93.2801,102.3116,89.7025,69.7025,77.8795,97.8795,108.7516,117.0359,108.9709,100.6866,85.5221,89.1922,70.3527,90.3527,82.2146,102.2146,102.0707,92.0707,112.0707,121.1284,110.0802,126.8175,128.4749,108.4749,96.9279,116.9279,129.2233,110.9390,123.3824,125.8824,109.7676,129.7676,137.8990,135.6927,135.6927,151.4012,147.7312,166.7566,175.7008,185.5586,174.9968,154.9968,174.9968
0.6279,20.6279,29.8993,21.4463,35.5884,55.5884,64.0409,72.3252,77.3180,63.8112,43.8112,63.8112,62.5765,62.5765,64.4004,58.5426,72.6847,78.6960,76.5083,69.1785,60.8942,59.9415,39.9415,39.9415,45.4055,44.4568,24.4568,31.1235,50.8145,56.3616,46.3616,56.3616,76.3616,85.8591,67.5748,85.8591,74.1523,72.6593,86.8014,106.8014,97.2664,77.9264,97.2664,115.0427,106.7585,115.0427,121.1427,112.8585,121.1427,117.2287,105.6816,97.3974,99.9925,98.6253,78.6253,68.9620,88.9620,101.5643,98.2306,78.2306,77.2618,97.2618,94.2095,114.2095,114.8287,94.8287,80.6866,88.0375,69.1922,89.1922,71.5241,91.5241,93.5427,82.0707,102.0707,115.2705,101.1284,98.5332,118.5332,118.3180,110.0337,92.5635,112.5635,117.6286,100.9390,103.3824,105.8824,125.8824,114.4175,117.8990,121.5505,126.4012,131.4012,138.4723,147.4166,161.5587,181.5587,183.2811,164.9968,183.2811
0.5761,20.5761,9.8993,29.8993,43.2321,49.8988,44.0409,64.0409,69.0337,49.0337,37.4867,49.9274,42.5765,62.5765,64.4004,44.4004,64.4004,78.9470,92.6954,78.5533,70.2690,68.2257,59.9415,59.9415,62.5714,44.0652,24.0652,43.5116,30.8145,36.3616,56.3616,74.6458,84.6458,95.8591,87.5748,95.8591,94.1523,92.6593,100.9436,101.4982,88.9821,68.9821,88.9821,101.0124,109.2966,116.4776,108.1933,106.0055,111.8634,114.3144,106.0301,108.6252,116.9095,106.9096,97.2463,83.1042,83.1042,103.1042,104.8972,84.8972,97.2618,91.4040,111.4040,122.4937,115.2660,102.1796,82.1796,68.0375,86.8988,95.1831,91.5241,72.7057,73.5427,93.5427,103.0265,106.9862,86.9862,106.9862,115.8373,107.5530,90.0337,110.0337,95.3641,97.6286,117.6286,123.3824,125.8824,116.5729,125.9645,137.8990,135.6927,135.6927,151.4012,151.4012,166.7566,175.7008,189.8193,193.2811,184.9968,193.2811
0.0793,4.0016,24.0016,17.4586,23.2321,29.8988,49.8988,66.4644,58.1801,52.3140,44.0297,29.9274,49.9274,64.1694,55.8851,37.3294,50.6627,66.0180,76.0180,64.4111,50.2690,58.7220,53.1750,61.4593,42.5714,42.5714,42.9606,23.5116,43.5116,56.3616,64.6458,84.0333,82.0999,90.3842,87.8734,96.1577,107.7047,109.9537,101.6695,93.2140,73.2140,62.6575,82.6575,81.0124,94.3101,102.5944,88.1933,86.0055,91.8634,102.7674,86.0301,88.6252,108.6252,101.7472,110.0315,103.1042,103.1042,111.3884,113.1815,96.4442,101.2272,111.4040,119.6882,121.1239,101.1239,86.9818,78.0375,86.8988,66.8988,85.7638,94.0481,92.7057,93.5427,74.7422,94.7422,98.9973,81.2127,101.2127,105.1794,87.5530,107.5530,118.3180,99.5344,117.6286,125.9129,138.8415,144.8572,128.1199,136.5729,145.9645,155.6927,149.8348,163.9769,171.4012,176.0243,180.8751,169.8193,176.8904,191.0325,211.0325
0.6786,20.6786,32.2859,37.4586,43.2321,49.8988,58.1830,54.9174,38.1801,44.0297,24.0297,44.0297,58.2117,52.6224,35.8851,30.6627,37.7338,47.7338,67.7338,78.5533,58.7220,38.7220,33.1750,46.1039,42.0214,22.5714,22.9606,42.9606,34.2020,44.2020,55.7490,75.7490,62.0999,76.3264,67.8734,79.4204,99.4204,98.4067,81.6695,91.6155,76.8840,56.8840,64.6824,84.6824,74.3101,91.0474,91.8634,71.8634,91.8634,85.5388,74.4831,94.4831,98.4845,81.7472,94.7885,91.1185,105.2606,125.2606,124.7285,116.4442,121.2272,129.5114,124.5834,116.2991,115.2660,106.3218,98.0375,92.9194,84.6351,65.7638,77.3108,97.3108,95.5927,75.5927,95.5927,78.9973,98.9973,83.5299,85.1794,105.1794,97.5530,117.5530,119.5344,105.7065,110.5572,130.5572,146.6861,148.1199,156.4042,164.8572,174.2488,169.8348,177.8198,169.5355,156.0243,160.8751,180.8751,196.8904,191.0325,211.0325
0.1053,20.1053,28.8881,35.5977,34.1046,42.3889,56.5310,46.6331,26.6331,35.0861,20.2501,40.2501,47.1791,38.8948,24.3381,44.3381,57.7338,66.0180,76.0180,75.0519,55.0519,58.7220,46.1039,26.1039,22.0214,42.0214,37.1027,51.2448,54.2020,62.4863,59.1175,63.4818,50.5529,56.3264,70.4685,90.4685,87.7209,79.4366,70.1224,71.6155,72.0333,52.0333,72.0333,71.2161,62.7631,82.7631,85.5388,65.5388,77.6942,65.5388,85.5388,80.7752,84.4267,70.2002,74.7885,94.7885,110.0246,118.3088,128.3088,121.8657,113.5814,113.5814,113.0363,96.2991,113.0363,110.3243,90.3243,76.1821,64.6351,84.6351,94.0481,105.5951,95.5927,95.5927,76.8020,77.8321,97.8321,103.5299,105.1794,113.4637,117.5530,110.2021,130.2021,117.2535,130.5572,118.4018,138.4018,156.1142,166.1142,181.8589,173.5747,172.5675,164.2832,149.5355,169.5355,180.8751,177.2050,197.2050,211.0325,219.3168
0.6653,0.6038,20.6038,15.5977,14.1046,28.2468,43.3012,51.5855,35.0861,15.0861,30.5570,38.8413,33.8948,18.8948,38.8948,52.6224,71.7646,80.0489,78.5030,83.3362,70.3000,50.3000,38.7530,41.6345,21.6345,35.7767,55.7767,65.3870,61.5040,53.2198,39.1175,43.4818,63.4818,76.3264,84.6107,87.8340,76.1739,59.4366,67.4733,57.4733,68.0333,48.0333,62.6881,51.2161,65.3583,85.3583,93.8231,77.6942,57.6942,72.4419,75.7752,60.7752,64.4267,84.4267,94.7885,82.9535,90.0246,100.0246,120.0246,113.5814,93.5814,93.5814,104.7521,84.7521,104.7521,110.2352,97.9836,77.9836,63.8415,83.8415,99.4995,109.4995,115.5927,105.0863,90.9442,97.8321,79.2946,99.2946,112.4296,120.7139,129.6582,130.2021,130.2021,137.2535,145.5378,138.4018,127.8299,137.8299,157.8299,173.5747,153.5747,159.4325,144.2832,164.2832,161.0825,172.6295,192.6295,205.4893,204.0642,212.3485
0.8924,20.6038,1.1027,1.4555,21.4555,30.2396,23.3012,40.0384,37.6618,30.5570,10.5570,29.1139,13.8948,33.8948,47.1791,57.6225,51.7646,71.7646,58.5030,72.6451,78.5843,67.0373,50.1922,30.1922,21.2479,40.7022,48.9864,56.1588,47.8746,33.2198,53.2198,63.4818,71.7661,77.1932,68.9090,67.8340,67.2296,47.8896,47.4733,67.4733,76.3176,62.6881,42.6881,62.6881,79.5004,89.3053,88.0795,77.2707,68.9864,52.4419,55.7752,75.7752,84.4267,84.4267,104.4267,102.9535,102.9535,118.3088,128.3088,113.5814,93.5814,79.4393,91.2743,77.6810,88.2529,96.5372,81.9510,81.9510,63.0503,71.2152,81.2152,95.3574,115.3574,119.2284,110.1128,100.3316,80.3316,86.1051,92.4296,101.3739,115.5161,135.5161,150.2021,146.3589,154.6432,156.1142,147.8299,156.1142,166.1142,174.6904,159.4325,139.4325,159.4325,172.5675,181.0825,189.3668,200.9138,200.8015,184.0642,200.8015
0.8871,20.8871,21.1027,21.4555,1.9553,21.9553,11.7542,23.1647,17.6618,27.5070,7.5070,9.1139,29.1139,22.9921,30.0632,37.6225,57.6225,59.0749,44.3608,62.6451,74.1921,66.5221,46.5221,35.3900,40.7022,20.7022,40.1569,47.8746,27.8746,47.8746,61.5040,75.2323,77.1932,65.6462,48.9090,53.6919,58.9453,38.9453,58.9453,63.3334,71.6177,59.6381,39.6381,59.6381,61.0210,75.1631,73.9374,59.7952,48.9864,68.9864,75.7752,80.7852,80.7852,100.7852,101.5457,109.8299,119.8299,131.2378,129.9114,109.9114,95.7692,91.2743,71.2743,84.7855,68.2529,80.0880,80.8566,61.9510,81.9510,70.1213,81.6683,95.8105,115.8105,111.6204,101.8286,81.8286,100.3316,106.1051,112.4296,120.7139,129.6582,138.4239,133.7098,126.3589,140.5011,160.5011,166.3114,172.1693,172.0952,160.5482,146.4061,136.3465,146.3465,160.4886,180.4886,181.8567,181.8567,190.1409,172.5172,192.5172
0.9587,15.1009,35.1009,30.2396,16.0974,2.4555,2.8099,3.1647,3.5197,23.5197,4.5256,24.5256,13.5640,33.5640,33.6008,37.1364,40.8503,39.0749,34.3608,45.9078,65.9078,74.8064,55.3900,55.3900,48.9864,40.1569,20.1569,39.6121,24.3930,44.3930,46.9480,66.9480,68.9090,48.9090,37.3620,48.8339,54.4732,34.4732,54.4732,43.3334,60.0707,53.2753,36.6893,56.6893,46.8789,58.5455,65.6531,45.6531,65.6531,77.2707,75.2382,60.7852,80.7852,91.5457,81.5457,91.5457,111.5457,128.1653,122.3075,119.5586,99.5586,85.4165,84.7855,64.7855,79.0120,60.0880,60.8566,80.8566,90.2352,90.1213,78.6494,92.7915,112.7915,103.3361,83.3361,101.8286,110.1128,118.9382,110.6540,118.9382,119.1178,118.4239,113.7098,127.8520,147.8520,154.7644,146.3114,152.1693,163.8110,143.8110,132.2640,152.2640,164.6307,174.6307,175.9988,161.8567,161.8567,181.8567,164.9579,184.9579
0.4750,14.6171,34.6171,44.3817,28.4857,8.4857,22.8099,17.3068,23.5197,4.0221,24.0221,5.0360,25.0360,28.7501,13.6008,17.1364,20.8503,24.9327,44.9327,62.1613,72.1613,83.6743,73.1398,63.1398,54.8555,48.4412,39.6121,19.6121,39.0710,30.6181,44.7602,64.7602,68.1034,48.1034,48.1034,28.8339,48.8339,30.3029,50.3029,31.7864,51.7864,33.2753,33.8025,53.8025,36.8789,38.5455,58.5455,43.3885,63.3885,70.0742,55.2382,75.2382,66.9574,71.5457,91.5457,109.8299,119.8299,108.1653,102.3075,116.4496,113.7007,104.7855,84.7855,79.0120,59.0120,79.0120,80.8566,73.5057,87.6479,106.9336,92.7915,91.2985,111.2985,104.4067,84.4067,104.4067,114.2182,109.0628,90.6540,110.6540,99.1178,104.2817,118.4239,138.4239,145.8201,134.7644,132.1693,152.1693,163.7335,143.7335,129.5914,149.5914,158.0142,166.2985,167.7145,147.7145,165.4122,170.1263,158.2912,178.2912
0.5246,14.6667,34.6667,40.0328,20.0328,28.4857,28.4857,37.3068,30.0523,10.0523,30.0523,25.0360,5.5475,8.7501,28.7501,37.1364,32.3973,44.9327,33.8770,43.8770,63.8770,78.9976,58.9976,44.8555,34.8555,44.1651,46.8161,38.5318,19.0710,39.0710,56.7834,66.7834,62.2455,42.2455,28.1034,48.1034,29.5679,49.5679,31.0441,51.0441,32.5302,52.5302,53.8025,34.5617,54.5617,58.5455,40.9360,60.9360,47.2737,50.0742,70.0742,83.5225,86.9574,91.5457,82.2361,93.7831,113.7831,108.1653,88.1653,98.1653,104.6677,96.3834,85.4977,77.2135,58.2661,72.4082,92.4082,93.5057,101.7900,115.9321,112.7915,105.4406,119.5827,104.4067,104.4067,85.9339,105.9339,89.0628,109.0628,92.2578,112.2578,124.2817,129.0680,137.3522,125.8201,120.6223,140.6223,156.6034,164.8877,147.0094,127.0094,143.4173,138.0142,154.7515,155.9679,141.0479,145.4122,150.1263,170.1263,186.5755
0.4470,11.9940,26.1361,46.1361,31.5798,48.3170,48.4857,40.7428,20.7428,30.0523,26.0626,6.0626,25.5475,28.7501,37.0344,56.3419,52.3973,60.6815,45.4240,62.1613,72.1613,77.6440,67.6440,59.3597,44.1651,24.1651,37.9929,18.5318,38.5318,28.4991,38.4991,58.4991,61.7302,41.7302,27.5880,46.8609,49.5679,57.8522,51.0441,59.3284,46.6723,60.8145,55.1304,35.1304,55.1304,69.2203,60.9360,57.2659,67.2737,70.0742,56.9342,76.9342,84.7788,104.7788,96.3783,110.5204,122.0674,116.4496,98.1653,78.1653,90.0004,76.3834,77.2135,57.2135,76.1637,82.8304,91.1147,101.1147,115.2568,115.3710,123.6553,125.4406,132.6910,120.0760,100.0760,105.9339,87.4792,107.4792,113.4282,93.4282,113.4282,116.3060,109.0680,125.8052,111.6780,131.6780,140.2735,136.6034,153.4343,148.9672,140.6829,123.4173,126.4672,146.4672,135.9679,155.9679,165.4122,170.1263,170.1263,190.1263
0.2599,20.2599,35.7073,44.6516,51.5798,59.8640,54.8849,34.8849,40.7428,40.5690,20.5690,6.4269,26.4269,39.8927,28.0577,48.0577,65.0451,73.3293,65.4240,73.7083,83.5019,63.5019,49.3597,39.3597,32.6931,37.9929,17.9929,37.4564,44.1230,48.4991,48.4991,66.7834,61.7302,41.7302,46.8609,26.8609,46.1347,54.4190,61.7394,70.0237,66.6723,67.2467,47.2467,35.6997,55.6997,64.7915,76.3385,77.2659,85.5502,85.2185,76.9342,64.7788,84.7788,94.7788,114.7788,124.6625,113.9303,105.6460,106.4496,90.0004,70.0004,64.8364,78.3475,75.1219,56.1637,62.8304,72.8304,86.9725,101.2289,95.3710,115.3710,127.2108,135.4951,128.3603,120.0760,112.8244,92.8244,106.9666,121.7125,113.4282,95.0978,96.3060,97.5209,117.5209,106.3328,126.3328,120.2735,139.6135,133.4343,140.6829,120.6829,137.9983,146.2826,131.1171,151.1171,150.3773,158.6615,172.8037,177.3694,185.6536
0.3519,7.4230,16.3673,30.5094,50.5094,67.7586,63.1692,54.8849,49.7356,35.5935,26.7914,6.7914,26.7914,19.8927,39.8927,37.4858,45.0451,59.1872,79.1872,74.9452,76.1861,67.9019,67.6440,59.3597,52.6931,45.2052,36.9209,17.4564,24.1230,38.2652,58.2652,76.7834,70.0144,61.7302,55.1452,46.1347,26.1347,45.4094,41.7394,54.3537,74.3537,75.5310,63.9840,55.6997,36.5072,48.0542,68.0542,79.3152,71.0310,79.3152,90.8622,84.7788,74.7788,88.9210,108.9210,113.9303,102.3833,85.6460,102.3833,95.5908,87.3065,78.3475,58.3475,55.1219,75.1219,82.8304,91.1147,95.0568,81.2289,101.2289,114.5617,107.2108,121.3529,141.3529,129.1544,109.1544,100.3837,120.3837,135.2509,120.8713,100.8713,116.3060,117.5209,99.2617,119.2617,122.4185,111.3292,125.1501,119.2922,139.2922,135.3608,117.9983,137.9983,151.1171,144.0527,130.3773,144.5194,163.2272,157.3694,177.3694
0.2696,20.2696,35.7073,44.6516,39.4743,53.6165,65.1635,54.0001,34.0001,21.4513,7.3092,26.7914,12.8216,32.8216,48.1770,57.4858,65.0451,73.3293,69.0873,54.9452,64.6391,47.9019,64.6391,60.6227,51.0630,31.0630,16.9209,36.9209,44.1230,38.2652,58.2652,70.0859,61.8016,61.8016,67.1130,52.9709,44.6866,25.4094,34.3537,48.4959,68.4959,71.4588,51.4588,37.3166,56.5072,58.7030,66.9873,60.3405,51.0310,62.5780,82.5780,96.1365,94.7788,94.7788,114.7788,105.6460,85.6460,74.0990,84.6709,87.3065,67.3065,73.1644,54.0835,74.0835,75.1219,95.1219,89.3999,75.0568,95.0568,88.7882,94.5617,106.1087,120.2508,140.2508,137.4387,128.6680,114.5259,120.3837,132.4183,112.4183,112.4183,129.1556,127.5460,113.4039,101.0762,102.4185,103.7699,105.1501,125.1501,135.3608,115.3608,132.7570,135.4787,138.2792,124.0527,144.0527,137.6802,143.2272,157.3694,177.3694
0.4880,14.6301,34.6301,34.6417,25.3322,36.8792,56.8792,53.8314,34.0001,14.0001,7.6756,27.6756,32.8216,29.1516,43.2937,63.2937,67.6715,59.3873,59.0873,40.8031,56.3549,36.3549,56.3549,52.3385,32.3385,36.0085,16.5427,36.5427,56.3739,58.2652,66.5495,61.8016,41.8016,41.8016,55.9438,38.8287,24.6866,43.9649,47.7445,51.7445,60.0288,71.5758,57.3166,57.3166,38.1281,38.7030,58.7030,40.3405,60.3405,69.4510,76.1365,76.1365,83.3160,91.6003,103.1473,107.6984,98.6407,78.6407,64.6709,80.5334,72.2491,53.1644,73.1644,56.1859,76.1859,86.5901,69.3999,89.3999,103.3410,108.7882,114.5617,122.8460,122.6337,122.6337,130.9180,141.3855,134.5259,140.3837,140.7026,123.9653,132.4183,140.7026,141.6881,125.5483,105.5483,122.4185,123.7699,125.1501,107.1402,127.1402,130.6128,112.7570,115.4787,118.2792,138.2792,152.3370,157.6802,163.2272,157.3694,177.3694
0.9939,20.9939,28.8682,14.6417,34.6417,42.2010,62.2010,45.5471,25.5471,27.6756,27.6756,8.1950,28.1950,36.9991,45.9433,57.4903,56.1245,39.3873,50.8031,30.8031,49.2838,29.2838,40.3395,43.7594,35.4751,16.0085,36.0085,28.0897,42.2318,62.2318,65.2451,56.9608,47.6595,27.6595,47.6595,42.7494,43.2502,23.9649,27.7445,31.7445,43.2915,63.2915,77.3166,66.4123,49.6751,58.7030,39.5178,59.5178,41.1667,61.1667,56.1365,71.7690,63.3160,74.8631,94.8631,99.4142,79.4142,78.6407,58.6407,71.3377,52.2491,72.2491,81.4487,76.1859,58.3059,78.3059,65.6203,85.6203,100.6580,100.6580,108.9423,113.2056,102.6337,102.6337,122.6337,121.3855,135.5276,138.2874,146.5716,143.9653,152.2496,148.2185,128.2185,114.0763,125.5483,117.0953,137.0953,135.4244,127.1402,109.1502,110.6128,130.6128,135.4787,138.2792,124.1769,135.7239,149.8660,169.8660,177.3694,185.6536
0.8885,20.8885,8.8682,28.8682,22.2010,42.2010,59.9134,45.5471,45.5471,47.6756,36.4793,28.1950,8.7148,17.6591,29.2061,49.2061,47.1802,27.8402,43.2438,23.2438,33.8157,34.1907,20.3395,34.9422,15.4751,35.4751,36.0085,48.0897,56.3739,52.8486,53.1496,36.9608,40.6309,21.3349,41.3349,22.7494,23.2502,43.2502,47.7445,51.7445,38.4112,58.4112,74.2548,77.9593,69.6751,58.0243,43.8822,63.8822,61.1667,41.9943,61.9943,51.7690,65.9112,85.9112,98.3545,92.4966,83.0842,63.0842,70.4351,51.3377,71.3377,66.3913,86.3913,86.5901,78.3059,60.4563,80.4563,84.6747,80.6580,80.6580,100.6580,93.2056,88.4916,102.6337,122.6337,107.2434,121.9574,118.2874,136.0152,144.9595,156.5065,148.2185,128.2185,125.6233,142.3606,128.6423,145.3796,145.4802,125.4802,116.7095,130.6128,120.0409,140.0409,152.4612,144.1769,131.0368,151.0368,166.2315,166.2315,186.2315
0.1344,3.6160,23.6160,28.8682,42.2010,31.6291,51.6291,65.5471,56.9477,46.9477,29.2354,9.2354,28.7148,36.9991,42.1974,50.4816,38.8960,18.8960,38.8960,33.2863,13.8157,14.1907,14.5660,14.9422,34.9422,43.7594,56.0085,46.6899,38.4056,32.8486,33.1496,40.6309,20.6309,40.6309,22.0416,42.0416,27.1725,47.1725,61.3544,66.6955,58.4112,45.9705,60.1126,80.1126,86.3086,68.7329,48.7329,68.7329,70.2786,61.9943,42.8248,62.8248,71.9453,79.2459,78.3545,72.4966,77.8223,69.5380,50.4351,60.4351,79.6220,86.3913,94.6756,100.4563,80.4563,80.4563,62.8640,64.6747,66.5159,86.5159,91.5042,79.0635,93.2056,113.2056,111.3457,97.2434,101.9574,107.7309,116.6752,128.2222,148.2222,156.5027,148.2185,145.6233,153.9076,148.6423,156.9266,153.7644,144.9938,126.7095,144.9938,131.5879,134.1830,154.1830,159.3211,142.5838,139.5649,146.2315,160.3737,180.3737
0.8052,20.8052,23.6160,43.6160,57.1525,45.7713,45.7713,65.7713,48.6635,28.6635,18.6635,29.2354,9.7570,29.7570,22.1974,38.9346,31.7022,12.2293,32.2293,13.2863,33.2863,28.3329,34.5660,24.9422,34.9422,54.9422,46.2645,37.9802,18.4056,18.7065,19.0074,39.0074,20.1342,40.1342,36.1837,50.3259,47.1725,33.0702,53.0702,68.4255,74.2548,54.9148,60.1126,80.1126,85.0628,65.0628,54.7631,74.7631,79.1547,59.1547,62.8248,43.6610,63.6610,59.2459,65.7054,58.3545,69.5380,49.5380,69.5380,78.7194,76.7650,90.9072,110.9072,101.9703,81.9703,70.4233,82.8640,78.8169,86.5159,69.2250,71.5042,91.5042,98.1354,106.4196,91.3457,111.3457,121.9574,127.7309,121.8731,141.8731,149.0722,140.7879,143.3831,151.6673,166.8858,158.6016,161.6704,153.3861,154.9938,146.7095,154.9938,145.7300,154.1830,162.4673,170.8681,162.5838,159.5649,166.2315,166.2315,186.2315
0.2805,20.2805,25.2760,39.4181,59.4181,65.7713,65.7713,74.0555,56.9477,38.6635,38.6635,20.4475,29.7570,10.2795,10.6504,30.6504,11.7022,31.7022,12.7575,32.7575,33.2863,48.3329,53.2265,44.9422,53.2265,52.1224,32.1224,17.9802,37.9802,38.7065,39.0074,19.4334,39.4334,31.6812,51.6812,64.4680,61.3544,44.6172,40.1412,60.1412,76.5905,74.9148,71.2447,80.1126,93.3471,81.4298,61.4298,81.4298,87.4390,71.8260,51.8260,63.6610,44.5032,45.1037,45.7054,65.7054,68.9052,48.9052,51.7920,71.7920,84.2465,84.9065,104.9065,110.2546,96.7478,76.7478,96.7478,98.8169,92.8171,72.8171,91.5042,75.1865,78.1354,98.1354,87.4234,96.3676,107.9147,127.9147,141.8731,150.1573,137.5252,120.7879,123.3831,143.3831,155.3388,138.6016,150.1234,133.3861,150.1234,155.0886,163.3729,165.7300,162.9223,154.6380,162.9223,164.2700,155.9858,155.9858,164.2700,175.8171
0.7811,8.9461,23.0882,43.0882,48.8293,68.8293,64.6461,72.9303,66.9477,47.2387,33.0966,40.4475,34.7517,14.7517,30.6504,11.1754,31.1754,39.9864,21.7017,41.0417,53.2863,52.0137,49.8259,56.3618,48.0776,45.5391,37.2548,17.6797,37.6797,39.9701,19.9701,39.4334,47.7176,51.6812,48.0111,68.0111,72.9014,64.6172,60.1412,48.3062,57.2505,77.2505,91.2447,99.5290,108.3969,89.7141,71.4298,89.7141,81.2541,61.2541,71.8260,69.2172,49.2172,65.1037,65.7054,46.5597,66.5597,48.2877,68.2877,55.9623,64.9065,79.0487,99.0487,113.0778,93.0778,90.8900,96.7478,98.2604,78.2604,92.8171,101.1014,95.1865,83.7145,82.4997,102.4997,115.7076,124.6519,136.1989,139.3229,137.1351,129.2409,109.2409,129.2409,142.7806,146.3946,127.0546,141.8391,121.8391,140.9465,135.0886,155.0886,152.8129,152.9223,134.6380,152.9223,150.0529,135.9858,135.9858,147.5328,167.5328
0.7232,20.7232,34.6872,28.8293,48.8293,50.5039,44.6461,64.6461,75.5230,61.3808,53.0966,35.7538,21.6116,34.7517,36.0261,16.0261,36.0261,49.9860,35.8439,49.9860,52.0137,32.0137,29.8259,43.9680,28.0776,36.8302,17.2548,37.2548,45.9640,48.2544,39.9701,20.5072,34.6494,54.6494,66.0397,76.2954,70.9673,79.2516,76.5905,59.8532,76.5905,73.5804,87.7225,107.7225,114.8626,99.7141,85.5719,92.8011,72.8011,81.2541,79.9077,59.9077,55.8839,75.8839,74.8440,66.5597,47.4157,67.4157,76.5720,59.1648,79.1648,92.1631,106.3053,116.8145,113.0778,110.8900,116.7478,106.5447,98.2604,84.1581,104.1581,110.0391,90.0391,102.4997,94.0467,108.1889,128.1889,139.3229,119.3229,117.1351,123.2107,103.2107,123.2107,122.7806,136.9227,118.1103,127.4198,114.2798,120.9465,140.9465,146.9551,132.8129,144.6380,124.6380,134.6380,130.0529,124.4388,144.4388,161.3807,169.6650
0.9495,7.6161,14.6872,34.6872,50.5039,30.5039,50.5039,61.7425,68.0683,70.2561,64.0380,46.9568,26.9568,46.9568,42.0563,22.0563,32.3560,52.3560,55.8439,52.4894,43.5451,35.2608,15.6837,35.6837,16.5306,16.8302,36.8302,37.2548,57.2548,55.0294,35.0294,20.8872,40.8872,37.7554,57.7554,56.8252,50.9673,70.9673,81.6625,79.8532,88.1375,92.6435,100.9277,109.0048,94.8626,109.0048,105.5719,101.0853,84.3481,94.0498,74.0498,79.9077,63.4432,83.4432,72.5796,52.5796,56.3599,63.7456,83.7456,79.1648,63.8789,78.0210,88.5302,102.6723,111.6166,123.1636,122.1940,102.1940,90.6470,104.1581,112.4424,117.1102,97.1102,117.1102,108.1889,122.3310,130.5619,138.8462,122.9929,102.9929,117.8655,97.8655,115.9893,108.6384,128.6384,127.4198,107.4198,127.4198,140.9465,149.2307,136.9551,118.6708,136.9551,134.6380,114.6380,115.9107,135.9107,147.2386,141.3807,161.3807
0.2837,20.2837,34.6872,42.2890,34.0048,23.4329,33.4582,53.4582,48.0683,50.2561,70.2561,52.9871,32.9871,52.9871,48.7230,28.7230,48.7230,60.6403,58.3472,38.3472,24.2051,15.2608,35.2608,16.1070,36.1070,36.8302,24.1331,35.6801,55.6801,55.0294,35.0294,40.8872,21.4255,41.4255,46.1348,36.8252,56.8252,53.3782,67.5203,87.5203,89.3807,72.6435,85.9472,91.2924,80.7205,92.2675,112.2675,112.6323,104.3481,102.3341,94.0498,83.4432,74.9902,84.1267,64.1267,56.8437,76.3599,72.6899,92.0299,92.1631,83.8789,69.0428,74.3881,83.3323,94.8793,114.8793,130.4782,117.7180,97.7180,101.3374,121.3374,125.3944,111.2523,117.1102,128.1889,127.2992,110.5619,127.2992,115.4336,95.4336,106.0055,92.8655,95.9893,115.9893,128.7495,123.6402,103.6402,118.5602,126.8445,138.3915,128.6708,108.6708,128.6708,123.2625,108.6078,128.6078,138.2943,127.2386,138.7856,158.7856
0.1404,20.1404,31.3224,30.1196,14.0048,17.1282,37.1282,46.6232,33.9262,53.9262,72.2104,60.0581,40.0581,60.0581,57.0073,38.7230,57.0073,60.8380,52.5537,52.4894,34.9621,14.9621,34.9621,30.2492,44.3913,50.1634,30.1634,50.1634,63.9644,63.3136,55.0294,49.7098,41.4255,21.9645,26.1348,32.1650,39.2361,53.3782,73.3782,83.3505,75.0662,61.0965,65.9472,71.2924,91.2924,109.0048,120.5518,112.3751,104.0908,112.3751,111.7274,103.2744,94.9902,78.2688,81.2080,61.2080,81.2080,92.6899,100.9741,100.5898,80.5898,89.0428,79.0428,87.0372,98.5842,118.5842,131.8602,111.8602,111.8602,115.4795,117.6673,137.6673,131.2523,137.1102,133.1570,113.1570,99.0149,109.5868,117.8711,106.0055,86.0055,100.7533,88.9183,100.4653,120.4653,131.9245,118.5602,98.5602,110.1072,130.1072,122.0041,102.0041,118.1825,103.2625,123.2625,130.4496,118.2943,138.2943,155.5228,167.0698
0.6646,3.0382,23.0382,10.1196,30.1196,37.1282,21.9092,26.6232,46.6232,43.9262,63.9262,68.3424,51.6051,68.3424,67.0073,58.7230,67.0073,52.5537,32.5537,38.4115,34.2413,14.6635,28.8056,48.8056,58.5334,58.4476,50.1634,41.7104,61.7104,71.6646,60.1176,51.1734,42.3473,22.3473,42.3473,42.4647,52.1650,67.5203,77.9072,69.6229,55.0662,75.0662,85.9472,91.2924,99.5767,95.0738,103.3581,102.3751,84.0908,102.3751,105.5278,113.8120,98.2688,98.2688,87.5326,67.5326,71.2080,85.3502,105.3502,100.5898,94.7320,107.3271,89.0428,99.0428,115.3215,126.8685,140.1444,131.8602,131.8602,135.4795,137.6673,135.4528,125.4528,117.1686,121.3107,127.2992,109.5868,89.5868,102.0275,110.3118,100.7533,80.7533,100.7533,114.4921,114.4921,122.7764,115.3158,95.3158,115.3158,121.3409,113.0566,95.9739,98.1825,101.0693,121.0693,110.4496,115.6136,135.6136,152.0629,163.6099
0.6164,20.6164,6.4681,26.4681,24.2618,44.2618,41.9092,29.2121,49.2121,63.9262,58.0683,78.0683,71.6051,79.8894,81.7447,61.7447,60.0290,51.7447,38.4115,18.4115,14.2413,33.8202,39.3672,45.6918,53.9761,62.9203,69.9946,55.8525,69.9946,63.3804,43.3804,31.8334,22.8891,42.3473,50.6315,62.4647,70.7490,80.4493,69.6229,49.6229,69.6229,83.3505,88.3953,80.1110,88.3953,75.0738,91.8111,94.0908,74.0908,91.3856,85.5278,105.5278,118.2688,100.1817,80.1817,79.0796,91.2080,85.3502,105.3502,120.5898,114.7320,117.3271,109.0428,117.3271,127.3271,130.0176,138.3019,142.0947,133.8104,142.0947,141.3107,121.3107,107.1686,97.1686,101.3107,113.4661,117.8711,102.0275,82.0275,95.3608,96.3559,77.7719,97.7719,94.4921,94.4921,114.4921,112.1923,92.1923,112.1923,110.2561,93.0566,113.0566,118.1825,121.0693,105.2857,125.2857,135.6136,123.7786,135.3256,155.3256
0.7616,20.7616,15.4124,34.7524,44.2618,52.5460,49.2121,49.2121,38.1564,58.1564,78.0683,86.3526,77.6756,69.3914,77.6756,61.7447,41.7447,31.7447,25.7145,38.4115,33.3999,13.8202,19.3672,25.6918,34.6361,48.7782,68.7782,75.8525,79.1342,67.5872,49.3029,29.3029,23.2727,43.2727,52.1009,58.5040,66.7883,69.6576,61.3733,46.0874,60.2295,80.2295,78.3953,60.1110,71.9798,63.5268,83.5268,87.0197,67.0197,71.3856,91.3856,99.8643,108.1486,108.4660,94.3238,99.0796,107.3639,105.3502,113.6344,123.2376,121.1813,118.9935,110.7093,118.9935,126.7549,110.0176,126.7549,132.0947,113.8104,132.0947,134.6722,126.3880,125.4528,107.1686,87.1686,93.4661,107.6082,102.2715,93.9872,75.3608,76.3559,96.3559,79.2794,80.3500,100.3500,110.1682,109.1772,89.1772,107.4958,90.2561,110.2561,107.1987,127.1987,125.2857,125.2857,114.2299,134.2299,143.7786,135.3256,155.3256
0.8583,15.0004,35.0004,29.5546,43.6967,63.6967,69.2121,66.4407,49.7034,52.2985,72.2985,76.9345,67.6756,49.3914,67.6756,65.8869,45.8869,45.7145,45.7145,33.3999,13.3999,33.3999,39.3672,45.6918,53.9761,62.9203,75.6511,84.6853,70.8499,50.8499,39.3029,49.3029,43.2727,23.8166,43.8166,38.5040,58.5040,56.9012,41.3733,61.3733,74.3717,71.7919,70.1110,50.1110,51.9798,71.9798,72.0496,75.5312,60.6952,66.4687,72.7932,79.8643,91.4113,111.4113,114.3238,116.7566,106.7566,98.4723,106.7566,103.2376,101.1813,108.9935,90.7093,108.9935,118.4706,98.4706,107.7802,113.8104,103.8104,123.8104,119.6551,106.3880,110.0580,115.4528,99.3239,79.3239,99.3239,92.6327,73.9872,80.6539,96.3559,104.6401,93.4216,100.3500,81.8839,101.8839,104.5844,86.2283,87.4958,107.4958,118.1705,127.1987,135.4830,145.2857,142.5142,125.7769,128.3721,148.3721,146.8726,163.6099
0.9617,20.9617,40.1180,49.5546,50.2423,58.5265,70.0735,77.9877,69.7034,72.2985,80.5828,68.6502,48.6502,39.3914,59.3914,74.1711,65.8869,65.7145,47.2449,27.2449,13.1028,27.2449,47.2449,59.3212,51.0369,47.3669,67.3669,64.6853,78.8275,67.5872,53.4451,53.2447,33.2447,43.8166,24.3619,44.3619,53.1925,36.9012,56.9012,52.2021,60.4864,51.7919,59.6498,42.5517,62.5517,68.3357,52.0496,55.5312,75.5312,86.4687,92.7932,99.8643,108.1486,119.6956,108.8923,100.6080,88.4723,78.4723,96.7566,89.0954,87.0392,90.7093,80.7093,100.7093,109.7399,101.4556,87.7802,93.8104,113.8104,113.7973,99.6551,110.0580,90.0580,98.5110,94.7356,74.7356,91.3038,72.6327,92.6327,100.6539,91.3444,111.3444,113.4216,110.1682,96.0261,83.4316,84.5844,104.5844,107.4958,89.8862,109.8862,120.6048,128.9530,137.2373,154.0612,145.7769,148.3721,156.6563,166.8726,175.1569
0.2867,11.8337,31.8337,39.5518,30.2423,41.7893,61.7893,71.8607,71.8607,80.1450,70.6529,62.3686,52.3203,32.3203,52.3203,64.7696,56.4853,64.7696,46.9480,26.9480,12.8059,32.8059,48.6308,40.3465,31.0369,51.0369,57.8941,50.5432,70.5432,81.7293,64.7917,44.7917,53.2447,38.5040,44.3619,24.9082,44.9082,33.8512,49.5872,32.2021,52.2021,37.6498,39.6498,59.6498,45.7750,48.3357,68.3357,57.9473,77.9473,89.1226,89.1226,109.1226,127.6506,115.4582,100.6080,80.6080,86.4659,68.4723,88.4723,77.5484,83.4063,70.7093,90.7093,106.8757,101.0179,81.4556,95.5579,103.8422,117.9844,103.7973,85.5130,103.7973,98.5110,78.5110,89.0829,70.3712,71.3038,91.3038,80.1920,100.1920,111.3444,105.4865,125.4865,124.3103,106.9671,86.9671,104.5844,112.8686,118.1705,109.8862,92.3206,112.3206,108.9530,128.9530,139.0836,147.3679,162.8536,154.5693,162.8536,172.8536
0.7777,20.7777,13.5216,19.5518,39.5518,58.5265,66.0028,51.8607,51.8607,71.8607,62.3686,42.3686,46.9751,26.9751,46.9751,54.7696,36.4853,54.7696,46.6512,26.6512,12.5091,32.0895,35.4228,20.3465,40.3465,33.0434,37.8941,57.8941,67.8941,87.8941,73.0760,56.3387,58.5040,58.5040,45.2948,25.2948,45.2948,47.3853,29.5872,49.5872,34.8629,54.8629,59.6498,67.9341,65.7750,53.3343,73.3343,77.9473,64.2719,69.1226,89.1226,105.9349,107.6506,101.3161,87.1740,86.4659,66.4659,61.8057,81.8057,77.5086,63.4063,83.4063,98.9935,86.8757,81.0179,90.3057,75.5579,89.7001,107.4303,95.5130,75.5130,95.5130,96.0959,87.8117,69.0829,89.0829,82.8508,99.5880,100.1920,88.7200,108.7200,125.4865,133.7708,119.6162,99.6162,106.9671,92.7406,106.8827,126.8827,120.6048,106.4627,94.8109,114.8109,124.9414,119.0836,139.0836,152.8536,134.5693,144.5693,162.8536
0.5059,5.3566,16.9036,36.9036,47.8361,56.5748,48.2905,37.7186,57.7186,64.9599,62.3686,42.3686,28.2265,22.1244,42.1244,46.4853,26.4853,46.4853,51.6717,31.6717,31.6717,12.0895,15.4228,35.4228,26.3767,46.3767,57.8941,47.8941,62.0362,82.0362,84.6230,76.3387,78.5040,59.4369,39.4369,45.2948,25.8423,27.3853,47.3853,57.8715,49.0050,46.4099,57.9569,77.9569,73.3343,73.3343,62.7624,82.7624,78.4140,89.1226,77.6506,87.6506,107.6506,93.0318,73.0318,80.3827,75.7754,55.7754,71.9616,57.5086,77.5086,91.6906,90.6309,82.3466,66.8757,70.3057,90.3057,103.8422,99.1460,79.1460,68.8463,88.8463,87.8117,67.8117,87.8117,97.3672,102.8508,111.1350,117.0043,102.8621,100.2670,111.8140,131.8140,127.9005,113.7584,117.1050,97.1050,117.1050,133.2339,134.7470,123.0951,114.8109,97.3822,104.9414,124.9414,131.6903,136.4044,124.5693,134.5693,154.5693
0.0296,20.0296,33.6409,45.1879,56.0853,48.2905,28.2905,48.2905,59.1020,44.9599,51.1685,42.8843,37.5360,17.5360,37.5360,39.8186,19.8186,39.8186,45.8138,25.8138,11.6717,31.2541,30.9591,39.2434,46.3767,54.6610,70.3733,67.8941,67.8941,87.8941,83.1313,74.8470,74.8470,67.7212,59.4369,54.1265,45.8423,26.4082,40.5503,60.5503,69.0050,66.4099,74.6941,86.2412,93.3343,82.7624,76.9045,79.0923,98.4140,105.9349,89.1976,105.9349,98.7007,90.4164,80.3827,60.3827,70.3827,51.3033,51.9616,71.9616,72.9081,92.9081,82.3466,62.3466,82.3466,90.3057,98.5900,94.1135,90.0456,81.7613,62.8161,82.8161,86.9172,66.9172,81.0594,101.0594,116.3790,114.5916,122.8759,122.8621,120.2670,128.5513,140.0983,142.0426,131.2471,111.2471,117.1050,104.9496,116.4966,136.4966,131.0492,111.0492,99.5022,103.1557,107.3260,111.6903,116.4044,130.5465,150.5465,162.8536
0.9835,15.1257,35.1257,52.6140,36.0853,36.0853,22.9453,42.9453,49.1020,30.8178,42.8843,22.8843,28.7421,13.8221,33.8221,26.4858,14.0451,34.0451,51.5102,39.9559,31.2541,11.2541,10.9591,30.5420,38.8263,42.0890,61.9122,56.8278,65.1121,76.6591,74.8470,54.8470,54.8470,68.9891,55.8259,46.9747,26.9747,46.4082,54.6924,53.5461,61.8304,64.8206,73.1049,74.8206,94.8206,102.7624,96.9045,99.0923,107.3766,117.4819,109.1976,104.5585,84.5585,70.4164,77.7673,70.3827,50.3827,70.3827,71.9616,52.9081,72.9081,74.5312,75.2058,59.3315,73.4736,93.4736,88.2557,74.1135,80.7101,61.7613,81.7613,63.8829,83.8829,66.0264,86.0264,88.0947,100.4495,94.5916,114.5916,125.8180,134.1023,133.9912,133.9912,153.9912,139.5314,131.2471,132.0207,112.0207,132.0207,144.7809,139.3334,121.6715,101.6715,121.6715,127.3260,131.6903,136.4044,144.6886,157.2456,167.2456
0.0572,14.1994,34.1994,38.4719,24.3298,16.0853,36.0853,51.2295,40.8178,20.8178,40.8178,28.7421,8.7421,25.7870,26.0764,6.4858,26.4858,23.2260,43.2260,47.5841,27.5841,31.2541,30.5420,10.5420,22.0890,33.6280,45.2808,36.8278,48.3748,68.3748,74.8470,54.8470,40.7049,51.7606,47.5416,27.5416,46.9747,55.2589,52.9625,33.5461,53.5461,44.8206,54.8206,74.8206,80.7602,89.0445,103.1867,103.3775,111.6618,104.8962,96.6120,104.8962,91.9094,71.9094,57.7673,68.8230,49.7359,69.7359,81.1924,72.9081,53.8578,54.5312,55.2058,75.2058,76.8924,85.1766,78.9295,59.9714,60.7101,80.7101,90.0456,83.8829,64.9519,84.9519,68.0947,74.1249,80.4495,94.5916,114.5916,105.8180,121.3421,113.9912,133.9912,135.9935,135.9935,144.2778,140.3050,132.0207,128.3506,148.3506,131.6715,111.6715,121.6715,104.9819,124.9819,131.4020,121.4020,128.9613,138.9613,158.9613
0.0976,14.2397,34.2397,30.1876,10.1876,30.1876,44.3696,49.0102,33.7467,13.7467,24.8024,25.0902,5.4977,5.7870,6.0764,26.0764,6.8960,21.0382,41.0382,52.2113,47.5841,38.1165,29.8322,10.2473,13.6280,33.6280,25.2808,45.2808,54.2251,74.2251,78.8316,58.8316,51.7606,31.7606,28.1091,47.5416,55.8259,52.9625,32.9625,52.9625,34.1302,54.1302,61.0401,68.1111,60.7602,74.9024,89.2354,83.3775,103.3775,94.8962,76.6120,87.4685,95.7528,86.0515,68.8230,48.8230,68.8230,69.7359,89.7359,73.8578,67.9999,74.5312,75.2058,56.1888,56.8924,76.8924,58.9295,78.9295,74.8523,74.8523,94.8523,81.2819,79.0941,89.6153,69.6153,89.6153,100.4495,108.7338,106.1060,94.2710,101.3421,121.3421,130.1356,115.9935,115.9935,135.9935,139.3243,147.6086,148.3506,145.8136,125.8136,125.8136,133.2662,124.9819,108.3869,111.4020,131.4020,144.9386,157.2456,167.2456
0.4225,20.4225,21.1092,21.3937,6.4737,26.4737,46.4117,40.7259,20.7259,24.3960,4.8024,5.0902,25.0902,25.7870,26.0764,27.1862,7.1862,27.1862,23.9270,43.9270,42.9745,29.8322,9.8322,29.8322,33.6280,18.7919,38.7919,34.2251,48.3672,68.3672,75.6439,58.8316,38.8316,51.7606,48.1091,28.6803,48.6803,52.5502,32.5502,51.9674,54.1302,34.7155,41.0401,48.1111,68.1111,78.5449,69.2354,89.2354,96.3611,86.6120,66.6120,67.4685,84.2058,82.3243,62.3243,48.1822,68.1822,80.3872,88.6715,93.8578,87.9999,82.8554,62.8554,76.1888,76.8924,57.8905,77.8905,87.2138,94.8523,94.8523,103.1365,95.4240,99.0941,91.1492,71.1492,91.1492,95.1903,103.4746,86.1060,103.0254,111.3096,120.7075,112.4233,101.8513,121.8513,128.6339,119.3243,133.4665,153.4665,154.0979,145.8136,145.8136,134.2846,114.2846,128.3869,121.4020,116.6543,136.6543,150.5954,162.1424
0.8170,0.8248,1.1092,1.3937,21.3937,18.1275,38.1275,32.2741,23.9898,4.3960,24.3960,13.2552,21.4201,41.4201,38.7333,18.7333,27.1862,7.5971,27.5971,36.2926,22.9745,29.1241,9.5388,29.5388,45.4586,25.4586,45.4586,54.2251,48.3672,68.3672,67.3597,47.3597,58.8316,49.2518,29.2518,48.6803,50.2292,58.5134,51.3849,31.9674,51.9674,35.1304,55.1304,63.6923,52.2204,58.5449,78.5449,85.1723,76.8880,68.0769,68.0769,55.9215,75.9215,74.9307,66.6464,47.5426,53.3161,60.3872,71.9342,91.9342,104.6677,87.8554,67.8554,87.8554,80.4725,60.4725,80.4725,89.9046,95.9348,103.0059,111.2902,115.4240,107.4791,87.4791,91.1492,73.3646,75.1903,95.1903,80.7608,83.0254,103.0254,108.7093,92.4233,112.4233,119.6896,108.6339,128.6339,139.3243,159.3243,160.4001,162.5689,142.5689,128.4267,119.1353,139.1353,132.9490,136.6543,122.3111,133.8581,153.8581
0.7482,20.7482,21.1092,21.3937,1.7975,21.7975,30.4859,23.9898,3.9898,23.9898,32.6802,24.8022,33.2552,49.7044,47.0175,30.2803,35.8814,27.5971,8.0083,28.0083,8.8324,9.1241,29.1241,29.5388,49.5388,45.4586,38.1077,58.1077,68.3672,76.6515,74.4307,54.4307,74.4307,57.5361,49.2518,29.8238,30.2292,50.2292,31.3849,51.3849,55.5454,35.5454,55.5454,43.6923,63.6923,71.8766,80.1608,76.8880,56.8880,62.7459,48.0769,68.0769,65.1276,65.7529,46.6464,66.6464,60.1917,69.6461,80.3872,100.2185,96.3835,76.3835,87.8554,96.1397,76.8024,80.4725,64.3576,69.9046,75.9348,83.0059,94.5529,114.5529,115.7634,97.7819,77.7819,93.3646,95.1903,77.8279,97.8279,103.0254,86.3358,88.7093,108.7093,96.6396,99.6896,119.6896,129.2059,134.3698,140.4001,140.4001,156.2436,156.7110,144.2993,124.2993,144.2993,147.0912,146.7833,126.7833,140.9254,160.9254
0.6698,14.8119,34.8119,30.0818,21.7975,2.2016,22.2016,23.7027,3.7027,17.8449,37.8449,44.8022,53.0865,61.5394,58.5645,50.2803,36.9526,16.9526,28.0083,8.4201,28.4201,29.1241,13.2498,33.2498,37.5631,57.5631,58.1077,58.1077,78.1077,94.4307,74.4307,65.9777,71.3709,51.3709,39.8238,49.8238,50.2292,30.8029,50.8029,59.6692,63.8297,55.5454,36.1330,56.1330,57.7344,51.8766,71.8766,70.1602,61.8759,42.7459,43.3628,63.3628,45.1276,45.7529,65.7529,66.6464,80.1917,76.5217,89.6461,108.6715,103.4545,83.4545,103.4545,105.0867,96.8024,87.5602,67.5602,87.5602,95.9348,103.0059,111.2902,122.8372,114.1118,94.1118,97.7819,82.5628,102.5628,97.8279,84.3167,104.3167,106.3358,108.7093,98.1374,116.6396,119.6896,104.9419,109.2059,114.3698,120.4001,127.9594,139.5064,159.5064,150.0728,130.0728,150.0728,167.0912,152.3303,132.3303,143.1132,163.1132
0.9240,15.0661,35.0661,36.3438,16.3438,22.2016,2.6061,22.6061,3.4158,23.4158,36.8114,43.8825,52.1667,63.7137,60.0466,40.0466,28.4996,31.0947,34.4503,14.4503,34.4503,41.5340,33.2498,17.5631,37.5631,46.1261,50.2086,58.4929,68.4929,82.6350,94.2620,85.9777,79.6551,68.1081,51.3709,54.4544,34.4544,50.8029,43.4520,63.4520,68.0970,48.0970,36.5500,56.5500,37.7344,57.7344,66.6135,61.8759,41.8759,61.0076,63.3628,44.2441,64.2441,50.4669,70.4669,86.0542,94.9307,96.5217,104.8059,117.9303,111.7388,95.0015,111.7388,114.3514,94.3514,80.2093,87.5602,72.7242,92.7242,95.3786,109.5208,129.5208,122.3961,110.7277,90.7277,86.9271,106.9271,112.6010,104.3167,91.6197,111.6197,125.2085,105.2085,125.2085,133.2261,113.8861,129.2059,123.3480,134.3698,147.9594,156.2436,167.7906,158.3571,144.2149,141.6198,161.6198,158.3605,138.3605,158.3605,171.3975
0.7345,14.8766,34.8766,44.6280,36.3438,22.6061,22.6061,3.0107,23.0107,10.4868,16.8114,23.8825,35.4295,55.4295,68.3308,56.7838,48.4996,51.0947,42.7346,34.4503,25.9973,45.9973,45.8473,31.7052,22.2771,26.1261,30.2086,40.2086,54.3507,69.9517,78.2360,88.2360,92.6920,79.6551,71.3709,57.0805,37.0805,57.0805,57.5942,71.7363,76.3812,64.8342,56.5500,37.1405,57.1405,38.3293,58.3293,59.5335,60.1429,41.0076,61.0076,58.3863,72.5284,70.4669,57.7699,77.7699,95.4823,105.4823,113.5043,105.2200,113.5043,115.0015,123.2858,117.5560,108.4936,100.2093,99.7952,79.7952,79.0487,99.0487,113.2747,121.5589,120.1558,100.1558,110.7277,106.9271,93.5938,113.5938,111.6197,111.6197,100.5640,120.5640,125.2085,119.3506,139.3506,125.4331,142.1704,137.4901,151.6323,162.6541,156.1462,154.6532,162.9375,164.2149,153.1668,169.9041,166.6448,149.9075,152.5026,172.5026
0.8206,10.8206,24.9627,44.9627,50.8903,37.1528,17.1528,14.5577,31.2950,24.6290,26.8168,43.8825,52.1667,56.2419,62.0998,63.4904,55.2061,48.5854,40.3012,48.5854,45.9973,42.3272,59.9895,49.3482,29.3482,46.1261,44.3507,37.5116,43.2851,49.9517,59.9517,79.9517,84.4077,64.4077,54.4077,46.8484,39.7773,59.7773,73.8351,85.8784,79.0523,63.4651,43.4651,48.6875,65.4248,58.3293,38.9246,39.5335,40.1429,60.1429,52.5546,72.5546,86.6705,77.7699,77.7699,67.1980,77.1980,97.1980,103.5043,85.2200,103.5043,109.2047,104.9069,97.5560,111.6982,113.9374,93.9374,93.9374,99.0487,86.6080,93.2747,113.2747,128.4401,109.1001,128.4401,118.5938,98.5938,118.5938,131.6197,128.8482,112.1110,114.7061,134.7061,139.3506,147.6349,145.4331,153.7174,157.4901,162.2168,150.2884,136.1462,134.6532,148.7954,168.7954,173.1668,181.4511,178.1918,169.9075,172.5026,180.7869
0.0150,20.0150,39.1049,34.9196,43.2039,45.4371,37.1528,34.5577,42.8420,44.6290,46.8168,55.1010,50.3840,36.2419,42.0998,50.6218,35.2061,38.8762,20.3012,40.3012,50.0195,62.3272,70.6115,57.6325,40.8952,49.3482,64.3507,51.6537,57.4272,69.9517,78.2360,88.2360,92.6920,82.6920,74.4077,64.1417,44.1417,45.5508,65.5508,80.1597,70.7680,50.7680,55.0121,68.6875,76.9718,59.5076,39.5076,59.5076,60.1429,56.4728,72.5546,68.8845,88.8845,97.7699,95.4823,87.1980,95.4823,105.4823,95.2200,75.2200,89.2047,89.2047,84.9069,83.4139,103.4139,122.2216,113.9374,113.9374,114.8923,98.1550,113.2747,107.4168,127.4168,123.2422,129.1001,125.6649,105.6649,111.2429,131.2429,140.3952,132.1110,134.7061,142.9904,153.2755,151.0877,151.0877,159.3719,158.0747,148.0747,133.9326,122.0041,140.3374,146.1109,152.7776,161.0619,171.0619,182.7707,174.4864,177.0816,185.3658
0.1711,20.1711,31.6569,14.9196,31.6569,39.5729,46.1196,37.8353,37.8353,57.8353,55.6108,47.3265,42.0998,22.0998,35.5083,30.6218,37.4638,18.8762,38.8762,21.7352,41.7352,51.4610,58.7717,67.0560,60.8952,69.1795,77.6325,71.6537,77.4272,85.0236,93.3078,101.7608,94.9505,74.9505,60.8084,50.8084,64.1417,65.5508,51.8754,71.8754,59.2961,70.7680,75.0121,83.2963,78.3756,60.0913,40.0913,60.0913,69.2053,76.4728,84.7571,88.8845,85.0517,93.3359,92.2937,89.6986,97.9829,97.5441,88.1490,68.1490,69.2047,81.3367,70.7648,90.7648,109.2169,108.7974,111.7462,112.2372,120.5214,118.1550,126.4393,127.4168,135.7011,143.2422,149.1001,133.9491,114.6091,125.3850,139.5272,154.9743,146.6901,146.6901,153.2755,133.2755,131.0877,131.0877,151.0877,147.5669,129.7904,119.7904,115.3374,120.3374,126.1109,132.7776,142.7776,162.7776,171.2237,154.4864,157.0816,177.0816
0.6634,20.6634,22.1763,3.3726,23.3726,19.5729,26.2883,17.8353,37.8353,48.3818,47.3265,27.3265,33.1843,14.5405,15.5083,16.4796,17.4638,37.4638,47.1605,41.7352,23.1767,43.1767,38.7717,58.7717,74.3823,71.4874,71.4874,79.7717,81.7608,65.0236,73.4766,88.7374,97.0217,89.0926,76.3554,56.3554,76.3554,76.7261,56.7261,76.7261,79.2961,68.7242,88.7242,84.2334,64.2334,50.0913,60.0913,40.9210,55.0632,75.0632,78.2247,81.7889,65.0517,81.7889,72.2937,69.6986,86.4359,77.5441,84.7020,76.4177,59.2047,61.3367,81.3367,80.9326,100.9326,88.7974,91.7462,92.2372,108.9744,123.1166,117.1826,122.9561,129.2807,136.3518,144.6360,142.8934,128.7513,142.8934,153.6693,146.6901,126.6901,126.6901,140.8322,136.9455,116.9455,128.4175,136.7018,133.4248,119.2827,109.7904,129.7904,134.4796,146.1109,152.7776,161.0619,171.0619,162.9394,142.9394,162.9394,179.3356
0.1702,20.1702,2.1763,22.1763,4.5765,5.4308,6.2883,26.2883,28.3818,28.3818,40.1233,31.8390,13.1843,33.1843,35.5083,23.5507,25.0231,37.4638,57.4638,51.4610,37.3189,24.6296,44.6296,46.0980,65.6296,51.4874,51.4874,71.4874,63.4766,53.4766,73.4766,68.7374,88.7374,90.4975,70.4975,65.2996,84.6396,82.0713,62.0713,82.0713,96.2834,76.2834,96.2834,86.4212,66.4212,70.0913,61.5088,41.5088,61.5088,70.6356,58.2247,64.7107,53.5046,65.9715,58.1516,58.1516,78.1516,63.4019,73.6961,56.4177,76.4177,81.3367,64.6027,84.6027,90.6146,74.6552,77.6041,80.6901,94.8323,109.6233,97.1826,102.9561,109.2807,116.3518,127.8988,147.8988,148.7513,156.7046,148.4203,141.3492,132.5479,112.5479,123.1198,131.4041,128.4175,108.4175,128.4175,120.8765,105.1405,125.1405,126.1204,146.1204,162.7639,169.3423,177.6266,167.9995,156.9092,136.9092,151.0513,170.0295
0.1451,0.9843,20.9843,30.4606,16.1235,25.4308,26.2883,7.5123,8.3818,28.3818,30.5086,11.8390,19.3983,39.3983,51.1100,31.1100,45.0231,37.6722,57.6722,65.6031,52.9139,44.6296,26.0980,46.0980,55.8899,37.3453,57.3453,57.7031,43.4766,48.8218,54.5953,63.5396,75.0866,95.0866,84.6396,76.8466,93.5839,88.1016,68.1016,88.1016,104.5677,90.4256,104.5677,94.7055,81.0098,66.9521,46.9521,61.5088,42.3513,62.3513,44.0826,44.7107,45.3397,45.9715,46.6046,66.6046,69.2942,51.8549,53.6961,73.6961,84.7020,92.8869,84.6027,68.0326,70.6146,90.6146,97.6041,100.6901,85.5409,89.6233,97.7883,107.7883,127.7883,136.3518,144.6360,156.1830,162.5624,142.5624,128.4203,121.3492,132.4050,123.1198,103.1198,123.1198,123.4175,103.4175,116.7508,100.8765,120.8765,125.1405,145.1405,154.4046,166.0796,149.3423,166.0796,153.8574,139.7152,131.7452,141.7452,161.7452
0.2897,20.2897,17.3142,37.3142,36.1235,44.4077,35.7966,19.0593,28.3818,9.6186,10.5086,30.5086,39.3983,33.5404,53.5404,45.2521,47.4399,57.6722,57.6722,70.4696,53.6573,33.6573,46.0980,27.6056,47.6056,30.6786,50.6786,37.7031,57.7031,68.8218,74.5953,82.8796,91.8238,103.3708,104.6396,96.8466,105.1309,96.3858,78.1016,84.4315,104.4315,110.4256,98.8814,87.3344,72.7256,52.7256,66.9521,70.6356,62.3513,43.1957,63.1957,64.7107,59.4818,60.1136,66.6046,47.5054,49.2942,69.2942,73.6961,65.2431,76.7901,96.7901,95.5919,75.5919,90.6146,81.3051,101.3051,113.8251,105.5409,96.2313,109.6233,126.0726,127.7883,147.7883,147.0938,155.3781,168.4203,148.4203,148.4203,132.4050,112.4050,117.7746,97.7746,112.7746,121.0589,116.7508,96.7508,116.7508,128.8613,137.1456,151.2877,143.2683,151.5526,137.7953,148.4141,140.1298,125.5731,145.5731,160.0295,170.0295
0.7392,14.8814,34.8814,45.5985,45.6974,53.9816,47.3436,39.0593,34.4693,14.4693,13.3370,33.3370,45.7470,53.5404,61.8247,65.2521,67.4399,75.7242,77.6722,62.1854,42.1854,53.6573,55.8899,47.6056,29.1240,49.1240,32.2598,37.8068,57.8068,73.0014,69.3314,83.4735,103.4735,107.1227,98.8384,98.8384,118.8384,106.3858,92.2437,104.4315,108.6314,100.3471,90.5971,70.5971,59.0501,72.7256,74.6581,66.1130,46.1130,63.1957,53.1957,73.1957,79.4818,80.1136,75.7896,67.5054,48.4710,62.6131,82.6131,85.2431,93.5274,105.0744,103.8762,95.5919,91.9219,101.3051,95.4472,115.4472,124.5156,106.2313,124.5156,137.9076,135.0630,143.3473,127.0938,143.8311,151.1866,142.9023,142.9023,140.6892,124.8457,104.8457,112.7746,92.7746,112.7746,112.7101,94.3431,114.3431,108.8613,123.0034,140.0056,123.2683,140.0056,129.6304,138.9399,120.1298,140.1298,153.8574,164.2397,172.5240
0.1049,14.2470,34.2470,37.1693,25.6974,45.6974,64.6721,50.7993,30.7993,20.2428,33.3370,17.4627,37.4627,50.1114,52.8016,61.0858,61.7458,81.7458,78.5153,58.5153,52.1854,70.4696,56.9686,36.9686,49.1240,53.4571,33.4571,53.4571,46.3348,53.0014,67.1436,87.1436,97.1227,88.8384,78.8384,92.9806,112.9806,116.2574,112.2437,111.8942,91.8942,80.3471,73.2761,66.6094,79.0501,74.6581,54.6581,49.1111,60.2551,74.3973,73.1957,65.8448,85.8448,82.8871,69.4388,49.4388,68.4710,71.1270,79.4112,92.4227,84.1384,89.9119,96.5786,104.8628,111.9219,120.2061,115.4472,123.7315,134.5156,126.2313,134.5156,131.8003,115.0630,123.9998,115.5468,135.5468,142.9023,122.9023,122.9023,132.9023,127.8082,116.2612,107.9769,89.4866,109.4866,92.7101,112.7101,96.2122,116.2122,126.3991,122.4470,111.7213,131.7213,138.9399,118.9399,116.5377,136.5377,150.0976,144.2397,164.2397
0.3236,20.3236,30.3094,17.1693,37.1693,36.3878,56.3878,59.0835,46.2731,26.2731,45.7470,37.4627,21.8271,41.8271,32.8016,41.7458,55.8880,75.8880,86.7996,72.1854,72.1854,65.9129,45.9129,56.9686,55.1658,35.1658,53.4571,61.7414,66.3348,73.0014,81.2857,76.2797,80.9938,68.8384,88.8384,107.1227,99.9274,96.2574,116.2574,120.1784,108.6314,100.3471,82.9393,86.6094,83.6024,63.6024,71.4205,51.4205,71.4205,88.5394,85.8448,85.8448,88.4341,74.6028,54.6028,69.4388,50.4260,51.1270,71.1270,76.8354,64.1384,69.9119,76.5786,86.5786,100.7207,120.7207,128.2172,126.0294,121.6881,129.9724,127.3319,119.0477,103.5160,103.9998,123.9998,132.9859,141.2701,128.7602,108.7602,112.9023,119.5239,99.5239,87.9769,107.9769,91.0879,111.0879,120.9944,116.2122,98.1148,118.1148,102.4470,104.1620,124.1620,129.1071,112.6154,132.6154,123.0265,130.0976,144.2397,164.2397
0.8751,20.8751,10.3094,24.4515,33.4993,53.4993,50.5299,70.5299,52.9397,32.9397,52.9397,50.1114,41.8271,26.4770,46.4770,40.9665,60.9665,78.1951,89.7421,92.1854,76.6033,56.6033,65.9129,62.4688,42.4688,55.1658,36.9336,56.9336,66.9996,78.2395,69.9552,56.2797,60.9938,80.9938,97.1227,89.9274,79.9274,94.0696,114.0696,116.6563,124.9406,111.2236,102.9393,94.2928,74.2928,83.6024,73.7775,53.7775,67.9197,87.9197,105.8448,94.2919,74.2919,60.1498,74.6028,78.7102,59.3702,71.1270,52.1214,56.8354,76.8354,89.9119,96.5786,104.8628,114.8628,128.2172,108.2172,106.0294,101.6881,118.4254,115.7849,99.0477,94.5717,114.5717,118.8437,112.9859,132.9859,129.8688,118.7602,98.7602,110.5952,105.4313,86.9199,106.9199,105.2300,105.2300,125.2300,126.3991,118.1148,100.0393,120.0393,124.1620,106.6818,109.1071,129.1071,140.8996,143.0265,132.4546,146.5968,166.5968
0.1967,4.2792,24.2792,38.5936,52.7358,61.7835,70.5299,78.8142,61.2240,42.9397,61.2240,58.0240,38.0240,40.6191,37.1674,57.1674,49.9108,61.4578,81.4578,90.7455,70.7455,76.6033,70.9968,50.9968,56.6109,65.2179,56.9336,38.7153,58.7153,64.2983,49.9552,69.9552,80.9938,89.2781,81.7625,69.9274,89.9274,108.2117,113.3936,96.6563,113.3936,123.3936,108.4350,88.4350,94.2928,90.3450,70.3450,56.2029,67.7499,81.8920,101.8920,100.0011,84.4138,64.4138,84.4138,87.6545,70.9172,72.8329,52.8329,72.8329,73.8425,93.8425,105.6765,104.6502,104.6502,124.6502,111.8873,91.8873,90.1411,109.4811,107.5007,87.5007,107.5007,118.8437,98.8437,118.8437,124.0109,109.8688,124.0109,110.5952,90.5952,85.4313,105.4313,115.2042,125.2300,125.2300,133.5143,138.3728,128.3236,120.0393,103.3273,123.3273,126.6818,110.4614,130.4614,142.6680,160.7389,152.4546,146.5968,166.5968
0.8124,7.1370,27.1370,28.6840,38.6840,52.8261,72.8261,80.9158,71.2240,62.9397,71.2240,66.3083,49.5710,60.6191,51.3096,53.4974,69.9108,64.0529,84.0529,99.0297,90.7455,80.9968,60.9968,70.9968,76.6109,78.7153,58.7153,58.7153,40.5187,44.2983,64.2983,78.2395,82.9757,74.6914,61.7625,81.7625,98.2117,104.8655,96.5813,85.1093,95.1093,115.1093,116.7192,108.4350,101.8797,93.5955,78.7429,58.7429,70.2899,90.2899,109.4292,91.7168,71.7168,75.9608,92.6981,99.2015,90.9172,81.1172,72.8329,53.8425,73.8425,85.6765,85.6765,84.6502,104.6502,121.0117,112.7275,101.1968,81.1968,93.8939,97.6735,83.3304,103.3304,111.7727,91.7727,111.7727,115.0667,95.7267,115.0667,111.2410,102.9568,84.4039,98.5461,118.5461,126.9308,135.2151,143.4528,130.0885,110.0885,106.7079,123.3273,131.6116,138.7457,130.4614,114.3837,134.3837,146.7937,160.9358,166.5968,174.8810
0.1128,20.1128,17.1370,37.1370,56.9683,66.9683,60.9158,60.9158,62.4552,62.4552,70.7395,77.8553,69.5710,77.3194,71.3096,73.4974,81.7816,84.0529,92.3372,98.8918,97.3268,77.3268,75.1390,89.2811,92.3313,78.1891,69.9049,63.1913,43.1913,42.7478,62.7478,66.6705,68.3668,54.6914,74.6914,90.0467,85.1458,89.5102,76.5813,96.5813,113.3936,123.3936,114.0868,94.0868,82.5397,73.5955,67.2709,61.6917,81.6917,98.5742,101.1449,81.1449,83.2638,95.9608,104.2451,104.9092,89.0099,69.0099,54.8678,73.8425,60.3313,65.6765,72.0011,86.1432,106.1432,109.4647,92.7275,97.9618,89.6775,73.8939,77.6735,97.6735,108.2906,105.7424,85.7424,97.8978,98.8032,86.7824,100.6552,101.6022,82.9568,85.7573,105.7573,112.7887,106.9308,126.9308,135.1685,115.1685,130.0885,126.7079,111.6316,131.6316,145.1681,142.6680,134.3837,118.5094,132.6516,151.2110,165.3531,176.0617
0.2110,20.2110,30.5510,38.6243,46.9085,59.2001,40.9158,56.5973,42.4552,42.4552,62.4552,73.7492,71.4616,57.3194,71.4616,83.0086,82.0037,90.2879,87.3448,78.8918,93.0340,97.3268,95.1390,94.0002,82.4532,64.0470,49.9049,47.0764,63.1913,62.7478,44.9980,46.6705,48.3668,68.3668,79.2886,79.2482,65.1458,69.5102,89.5102,104.8655,120.1017,122.2895,122.3710,110.8240,101.8797,93.5955,84.7068,64.7068,76.2538,96.2538,109.3098,89.3098,103.2638,111.5481,109.0513,94.9092,76.6249,75.5942,55.5942,75.5942,80.3313,76.6612,92.0011,100.2854,105.3060,97.0217,81.1805,88.5314,69.6775,89.6775,91.7194,100.0037,88.2906,102.4327,96.6367,77.8978,78.8032,79.7113,80.6552,81.6022,101.6022,105.7573,89.8398,92.7887,112.7887,125.6612,138.9482,118.9482,138.9482,139.9158,131.6316,116.8838,136.8838,150.9416,146.7937,138.5094,122.9267,137.0688,147.7774,167.6087
0.7144,2.2667,22.2667,18.6243,38.6243,45.5896,30.9158,39.3688,28.3131,42.4552,62.4552,53.7492,53.7492,43.1773,54.7243,74.7243,62.0037,78.7409,67.3448,64.7497,78.8918,98.8918,104.6000,85.7159,65.7159,54.1689,69.9049,61.2186,72.8426,52.8426,64.9980,60.8126,68.3668,51.0044,71.0044,59.2482,79.2482,89.5102,97.7945,114.2438,100.1017,102.2895,122.2895,115.6819,95.6819,84.1349,74.1349,68.3583,88.3583,104.5381,117.5941,103.4520,117.5941,113.3478,93.3478,80.7671,66.6249,56.6249,75.5942,83.8785,97.5245,96.6612,104.9455,106.7883,93.7590,77.0217,88.5314,68.5314,88.5314,70.8727,71.7194,91.7194,74.1484,94.1484,76.6367,96.6367,98.8032,83.5603,100.6552,101.6022,93.1492,113.1492,109.8398,112.7887,97.3770,111.5191,131.5191,122.9482,142.9482,157.2627,145.1681,136.8838,122.6573,142.6573,157.4304,142.9267,142.9267,127.7774,139.3244,159.3244
0.6420,20.6420,4.4821,24.4821,35.0310,25.5896,33.1624,19.3688,33.5109,53.5109,61.9810,53.7492,33.7492,53.7492,71.4616,69.7967,50.4567,64.6747,53.2027,67.3448,87.3448,99.7964,96.3157,76.3157,66.3157,57.3714,77.3714,81.2186,81.1269,62.8426,64.3896,80.8126,79.2886,71.0044,53.7012,73.7012,85.2087,99.3509,103.5534,95.2691,85.9596,99.4394,119.4394,123.9662,108.2771,88.2771,92.5286,72.5286,81.0074,92.5544,112.5544,123.4520,125.9969,105.9969,93.3478,73.3478,79.6064,59.6064,57.6932,69.2402,89.2402,92.6075,100.8917,92.6462,78.5040,65.4747,85.4747,67.7268,87.7268,90.8727,91.7194,72.9222,92.9222,75.3805,95.3805,104.9209,111.8446,103.5603,89.3338,109.3338,104.6962,121.4335,122.9240,102.9240,117.3770,108.0674,128.0674,142.9482,128.9784,148.9784,163.9293,150.9416,142.6573,129.1462,149.1462,162.9267,151.5570,131.5570,145.6992,165.6992
0.7331,20.7331,24.4821,6.7467,26.7467,11.4475,13.1624,14.8967,34.8967,33.6968,47.8389,45.4617,28.5852,48.5852,54.6132,57.3867,41.5124,44.6747,64.6747,75.1822,71.5122,91.5122,104.6000,90.0206,70.0206,77.3714,62.9184,82.9184,91.1269,76.9848,74.3896,92.6739,87.8433,67.8433,73.7012,56.9244,71.0666,87.2955,90.3455,75.2691,79.4394,99.4394,114.3903,125.9374,116.5613,108.2771,96.8930,76.8930,96.8930,109.2917,120.8387,127.4583,120.1390,100.1390,85.9969,83.9197,63.9197,78.4508,58.4508,78.4508,80.2924,72.6075,89.3447,83.2533,64.3619,84.3619,66.5927,86.5927,87.7268,107.7268,97.5105,77.5105,97.5105,95.3805,82.2405,102.2405,118.0840,113.5978,93.5978,113.5978,124.6962,132.9805,122.9240,122.9240,109.0961,128.0674,122.2096,142.2096,148.9784,135.6451,147.1921,167.1921,154.1462,134.1462,148.2883,168.2883,155.6395,135.6395,147.1865,167.1865
0.2087,20.2087,35.0310,26.7467,9.0484,29.0484,33.1624,34.8967,17.5935,19.5546,39.5546,25.4617,45.4617,32.0935,34.6132,37.3867,57.3867,64.6747,50.3315,55.1822,75.1822,92.4108,103.9578,98.3048,84.1627,87.0009,67.0009,81.1431,101.1431,96.9848,88.5318,102.6739,96.1276,87.8433,79.2653,59.2653,79.2653,67.2955,70.3455,90.3455,99.4394,86.1061,97.6531,117.6531,134.1023,118.8356,101.6070,81.6070,93.1540,113.1540,122.8136,107.4583,107.4583,101.6848,96.9707,87.4552,67.4552,86.7350,78.4508,59.5260,60.2924,61.0605,81.0605,63.2533,70.8126,90.8126,86.5927,73.8957,93.8957,110.7080,97.5105,97.5105,85.3551,105.3551,102.2405,89.7998,109.7998,121.8821,113.5978,100.4578,120.4578,138.1701,142.9240,133.5682,113.5682,133.5682,142.2096,150.4938,144.5893,155.6451,155.6451,175.4763,159.9197,139.9197,159.9197,171.7748,151.7748,140.2278,160.2278,175.4708
0.5281,14.6703,34.6703,37.3327,29.0484,19.0484,39.0484,45.8777,27.5935,39.5546,22.4118,42.4118,53.7460,52.0935,41.2799,57.3867,65.6710,77.8908,57.8908,75.1822,64.1265,75.6735,95.6735,112.4470,97.0009,77.0009,87.0009,75.5290,87.0760,107.0760,108.5318,112.1238,93.1491,73.1491,66.8246,79.2653,63.0791,83.0791,90.3455,81.8925,101.8925,106.1061,94.2710,105.8180,125.8180,110.5513,90.5513,95.7492,109.8913,121.4383,114.5293,94.5293,87.4583,81.6848,76.9707,72.8004,87.4552,95.7395,85.8505,65.8505,80.2924,81.0605,62.1524,82.1524,90.8126,84.9548,102.1800,93.8957,82.4237,102.4237,117.5105,111.3853,91.3853,111.3853,118.0840,109.7998,99.2278,119.2278,128.7420,109.4020,109.8859,124.0280,144.0280,141.8525,123.5682,121.7332,135.8753,155.8753,164.5893,154.5893,174.5893,183.9293,166.5863,146.5863,166.5863,180.0591,165.5731,145.5731,159.7152,179.7152
0.5482,20.5482,36.9082,46.9082,47.3327,30.5954,39.0484,55.8777,41.7356,50.6960,33.9588,33.9588,45.5058,65.5058,61.2799,51.9703,63.5173,83.5173,72.0330,74.2208,84.1265,78.2687,98.2687,111.1431,91.1431,91.1431,103.8132,85.5290,95.5290,115.3602,115.3866,95.3866,83.8396,93.1491,78.3716,83.0791,77.2213,77.2213,97.2213,93.4395,110.1767,114.2710,108.4132,108.4132,128.4132,118.8356,102.0983,106.8812,124.0334,128.6715,108.6715,114.5293,98.0147,101.6848,88.5177,84.3474,101.0847,99.9927,79.9927,79.9927,85.8505,90.4366,73.6994,74.8015,88.9436,104.9548,104.9548,110.7080,93.9707,96.5659,116.5659,119.6696,102.9324,105.5275,125.5275,127.5121,109.2278,119.2278,137.6863,120.9491,129.8859,124.0280,144.0280,143.5682,143.5682,133.2802,133.2802,144.8272,164.8272,168.7315,168.7315,188.7315,174.8706,156.5863,174.8706,179.7152,159.7152,159.7152,159.7152,179.7152
0.4590,8.6239,18.6239,32.7661,52.7661,50.5954,58.8797,67.3327,61.7356,62.2430,53.9588,53.9588,62.2430,73.7901,80.2546,71.9703,80.2546,91.8016,92.0330,94.2208,102.5050,98.2687,106.5529,119.4273,111.1431,111.1431,113.8132,105.5290,113.8132,123.8132,123.6708,112.1238,103.8396,106.6558,98.3716,103.0791,97.2213,97.2213,105.5055,113.4395,121.7237,134.2710,128.4132,128.4132,136.6974,130.3826,122.0983,126.8812,135.1655,136.9557,128.6715,126.2990,118.0147,116.8020,108.5177,104.3474,112.6317,108.2769,99.9927,99.9927,105.8505,101.9836,93.6994,94.8015,103.0858,117.2279,124.9548,122.2550,113.9707,116.5659,124.8501,131.2166,122.9324,125.5275,133.8118,137.5121,129.2278,137.5121,147.5121,140.9491,149.2333,144.0280,152.3123,163.5682,161.5645,153.2802,153.2802,161.5645,173.1115,188.7315,188.7315,197.0157,184.8706,176.5863,184.8706,187.9995,179.7152,179.7152,179.7152,187.9995
